# .PCD v0.7 - Point Cloud Data file format
VERSION 0.7
FIELDS x y z rgb
SIZE 4 4 4 4
TYPE F F F U
COUNT 1 1 1 1
WIDTH 1175
HEIGHT 1
VIEWPOINT 0 0 0 1 0 0 0
POINTS 1175
DATA ascii
638.53546 19.497108 792.78162 4278190080
935.10559 918.45233 564.38782 4278190080
942.34454 563.75885 451.27914 4278190080
619.12958 414.94907 91.989555 4278190080
297.74457 184.16147 51.824371 4278190080
806.91901 472.3912 875.97711 4278190080
352.035 448.36087 983.91986 4278190080
107.20517 480.66739 590.28406 4278190080
593.87506 268.26233 566.24164 4278190080
567.32465 54.44384 120.7292 4278190080
518.09601 692.97925 140.2263 4278190080
286.87766 604.0849 34.678642 4278190080
851.26544 522.42944 598.4375 4278190080
278.54459 117.55902 1013.3866 4278190080
370.53415 415.30356 173.54805 4278190080
422.35852 198.2226 645.93927 4278190080
274.33563 550.25763 70.30014 4278190080
234.25551 657.46277 550.96753 4278190080
824.53955 227.33783 819.22986 4278190080
366.78116 794.66248 873.67371 4278190080
487.51035 288.75848 542.65295 4278190080
627.73669 575.63617 122.73783 4278190080
662.41528 402.90158 645.16724 4278190080
236.85281 681.44617 762.72626 4278190080
226.23938 27.980322 154.02985 4278190080
399.78741 450.33884 352.25244 4278190080
21.726692 724.67444 902.51007 4278190080
92.02684 958.92999 535.97284 4278190080
642.99438 759.46954 763.31067 4278190080
438.22421 102.25067 533.97308 4278190080
287.89789 589.76105 822.73157 4278190080
830.55084 193.4977 374.36774 4278190080
953.2887 855.91302 777.26935 4278190080
574.45593 68.765816 434.71552 4278190080
313.18222 295.00519 462.69583 4278190080
467.21207 694.7926 913.03467 4278190080
819.46448 716.51935 613.70911 4278190080
697.97455 808.54614 548.6391 4278190080
209.94736 427.54053 284.10861 4278190080
973.258 865.76471 386.35928 4278190080
483.23111 129.66261 976.1203 4278190080
281.96271 960.21344 145.61801 4278190080
656.33044 889.50214 1001.531 4278190080
409.59976 439.95807 46.296841 4278190080
844.31525 753.14026 341.30203 4278190080
283.01108 196.35236 12.094671 4278190080
172.04573 1015.8168 728.61401 4278190080
785.75488 689.79138 513.16016 4278190080
310.39395 899.73877 940.70068 4278190080
594.50256 848.99677 782.46539 4278190080
980.86182 308.22787 912.12799 4278190080
932.98218 590.19061 848.34143 4278190080
54.600182 222.52101 713.84357 4278190080
32.131203 632.12079 129.80167 4278190080
78.42804 452.436 882.94196 4278190080
419.73007 735.44708 55.294308 4278190080
431.82477 907.4928 47.11116 4278190080
136.43875 669.24768 736.90253 4278190080
649.59888 979.6416 612.6413 4278190080
566.29956 550.14417 437.63809 4278190080
324.76498 507.00601 745.86597 4278190080
212.89297 415.98819 312.05655 4278190080
37.234428 470.58835 534.57758 4278190080
751.078 502.71957 142.69833 4278190080
880.8797 581.14758 595.13434 4278190080
739.82166 1000.8777 306.58142 4278190080
795.11597 408.70245 190.07425 4278190080
842.22711 545.14117 859.3219 4278190080
555.1297 170.7401 814.9635 4278190080
143.771 737.03967 341.1077 4278190080
581.40906 37.804649 848.11371 4278190080
303.27505 250.69762 240.10188 4278190080
615.3316 287.93207 710.69025 4278190080
125.90917 15.010077 189.40982 4278190080
268.60751 895.88977 770.55743 4278190080
863.74188 611.71143 747.43512 4278190080
146.32329 382.82739 132.13754 4278190080
336.39752 201.0545 677.27875 4278190080
171.71944 756.1842 848.01886 4278190080
986.68298 899.9552 561.05853 4278190080
303.79065 457.36426 598.86316 4278190080
127.90436 760.63928 849.56079 4278190080
368.00626 351.97089 113.49284 4278190080
54.696499 477.88007 128.50291 4278190080
244.10631 746.48755 0.39267921 4278190080
1014.6638 586.22943 612.10413 4278190080
738.09882 732.55273 994.93146 4278190080
870.23639 44.950264 171.98598 4278190080
523.51514 216.66971 928.17017 4278190080
347.53397 179.35266 804.12531 4278190080
908.59247 483.14331 237.48958 4278190080
483.45563 611.04767 998.12885 4278190080
309.01642 979.05389 326.09976 4278190080
422.50925 9.7504234 803.97986 4278190080
551.01215 253.85674 526.46741 4278190080
551.40485 244.52046 88.696854 4278190080
139.50894 982.61932 821.24957 4278190080
110.44043 828.85571 866.19983 4278190080
282.42642 328.37082 58.869549 4278190080
186.59657 675.90479 238.22221 4278190080
990.72192 560.49725 721.36554 4278190080
204.21149 19.952917 308.41321 4278190080
178.34035 328.96933 263.46713 4278190080
504.44012 751.47858 273.21756 4278190080
284.41995 278.49075 527.07428 4278190080
810.88733 829.89563 771.59473 4278190080
899.58423 969.40454 730.21405 4278190080
696.8338 55.844978 535.06976 4278190080
539.03363 338.27139 863.44061 4278190080
597.9032 524.86798 515.3454 4278190080
836.12543 491.58987 51.842663 4278190080
533.49091 695.80133 71.795578 4278190080
841.90411 874.14172 400.76492 4278190080
81.371269 354.58182 128.24352 4278190080
354.58881 639.00177 406.73428 4278190080
881.66309 425.88913 212.62988 4278190080
629.25787 301.47333 158.03444 4278190080
335.47192 998.30713 213.87941 4278190080
870.54169 513.34076 552.15082 4278190080
709.9823 87.243958 53.018764 4278190080
201.32765 923.36938 544.60864 4278190080
253.17032 432.86029 216.40997 4278190080
324.96591 250.76443 66.551682 4278190080
725.73083 332.13571 421.13351 4278190080
853.9743 686.72455 36.135277 4278190080
236.7086 544.38763 462.02441 4278190080
449.33847 149.64549 763.49774 4278190080
607.37292 485.1174 737.80487 4278190080
821.25232 331.65909 227.14566 4278190080
349.40314 17.641373 314.38962 4278190080
402.42191 218.96902 213.75899 4278190080
947.03052 472.13934 646.61926 4278190080
139.44052 797.10529 897.38373 4278190080
205.9922 498.83609 205.51942 4278190080
627.12573 328.81039 892.24396 4278190080
663.26099 565.51904 412.63156 4278190080
101.28539 1014.8575 562.27704 4278190080
864.78314 598.23041 23.394484 4278190080
578.58801 395.48276 355.05359 4278190080
805.7337 744.88586 372.69495 4278190080
96.123299 123.30779 591.664 4278190080
309.88229 46.338326 39.803345 4278190080
956.50159 185.77884 836.90863 4278190080
829.88525 391.77103 311.74469 4278190080
11.404703 1018.8967 640.55505 4278190080
903.64862 658.15771 182.0741 4278190080
292.28021 759.44312 172.93159 4278190080
854.55731 600.22626 771.16199 4278190080
877.95178 154.81429 142.64476 4278190080
209.00536 960.54797 887.53064 4278190080
581.70032 32.671268 1010.8384 4278190080
149.3643 342.55356 33.176773 4278190080
189.16765 275.05511 218.95561 4278190080
2.0762529 80.940392 610.72668 4278190080
313.82092 92.345093 605.62341 4278190080
954.37604 995.99371 239.78113 4278190080
112.45011 264.27396 999.22424 4278190080
285.38171 94.831261 575.4505 4278190080
32.54372 972.78302 730.26483 4278190080
175.18848 157.78841 666.81274 4278190080
38.719139 739.48871 699.48401 4278190080
25.557585 888.85303 18.037586 4278190080
58.73436 54.020683 293.09268 4278190080
277.68997 56.096935 374.03308 4278190080
888.41663 369.91788 466.37817 4278190080
470.04004 300.29388 438.37192 4278190080
709.82117 412.74399 702.64587 4278190080
685.04541 698.12567 797.47717 4278190080
236.49593 730.66943 746.26019 4278190080
966.76074 905.85791 904.04858 4278190080
609.57349 944.57703 619.53729 4278190080
285.05753 970.13464 484.39035 4278190080
303.09512 4.8689799 538.41101 4278190080
596.18781 282.55896 594.508 4278190080
970.22089 146.97559 964.42584 4278190080
412.59909 617.01562 240.71971 4278190080
850.97101 302.83676 653.46368 4278190080
529.61688 987.8822 327.58939 4278190080
303.09406 200.37811 34.258808 4278190080
25.354256 143.13884 940.1167 4278190080
929.40283 752.71234 860.69373 4278190080
524.94019 13.769875 806.82837 4278190080
1009.3305 316.86499 811.69733 4278190080
523.74158 913.0528 70.256302 4278190080
94.249519 859.27374 217.23187 4278190080
34.675354 247.8728 834.2475 4278190080
275.39505 74.843811 113.08427 4278190080
928.85876 604.46069 76.966454 4278190080
232.44815 907.55475 277.34457 4278190080
266.70697 932.90906 420.4834 4278190080
182.82367 838.31189 149.19574 4278190080
19.517414 339.25208 162.96562 4278190080
826.34576 324.58258 479.8306 4278190080
614.04315 848.32416 368.88342 4278190080
684.29944 942.57367 204.15714 4278190080
901.53131 977.24902 452.02994 4278190080
711.77881 228.64409 526.87378 4278190080
824.86304 133.50284 107.33447 4278190080
901.82953 365.95099 1014.8893 4278190080
155.17407 632.65796 923.79828 4278190080
575.65747 815.48163 738.11017 4278190080
724.85321 834.99902 53.362236 4278190080
887.81885 637.34485 377.94482 4278190080
343.64944 227.38795 202.26897 4278190080
712.5329 911.68738 120.84263 4278190080
916.69 789.21869 74.091652 4278190080
344.71997 476.99747 302.73575 4278190080
871.59369 277.86053 436.23859 4278190080
978.92822 155.69005 802.18958 4278190080
969.81744 310.86411 410.84753 4278190080
869.61572 886.52161 202.32918 4278190080
583.72589 587.37482 13.328228 4278190080
637.08813 451.19366 650.67303 4278190080
1015.033 794.84308 878.06104 4278190080
193.30193 483.37598 765.74835 4278190080
314.14456 376.06598 530.96704 4278190080
388.23621 720.78595 1007.9645 4278190080
690.97192 568.3797 261.82504 4278190080
103.21053 523.30786 417.51511 4278190080
905.40009 469.12531 728.37921 4278190080
292.24765 314.74106 590.90082 4278190080
494.57684 898.46698 154.27563 4278190080
507.90506 511.55508 605.4693 4278190080
134.57811 502.58804 376.31241 4278190080
1012.6391 695.89001 859.68835 4278190080
754.38751 1010.0345 211.75438 4278190080
261.35455 374.27075 932.54034 4278190080
245.31908 41.242706 476.92001 4278190080
507.14413 144.45323 1000.2278 4278190080
924.65924 25.853336 445.35318 4278190080
629.03845 318.10098 760.09424 4278190080
195.93929 812.6778 634.56116 4278190080
350.21494 296.58289 122.11627 4278190080
955.6842 431.16098 624.70435 4278190080
307.99661 419.80011 296.5943 4278190080
143.685 150.18761 282.62888 4278190080
355.43936 411.54214 656.8996 4278190080
263.97971 656.86121 698.14233 4278190080
740.89972 140.00537 842.59558 4278190080
717.12756 40.664608 868.44891 4278190080
138.48076 669.70306 162.54988 4278190080
898.57495 865.64233 975.22772 4278190080
509.13617 191.85727 247.81058 4278190080
631.25244 123.54149 678.97156 4278190080
231.95676 431.53812 74.771667 4278190080
528.55109 575.22308 224.95927 4278190080
811.17993 930.66248 636.5014 4278190080
444.07956 170.6422 269.36267 4278190080
118.22189 911.54187 409.36804 4278190080
960.81744 604.66949 450.03265 4278190080
805.26636 743.15021 95.735718 4278190080
967.81622 617.72522 961.37805 4278190080
919.04395 102.86137 129.23534 4278190080
142.85452 734.11377 252.77681 4278190080
821.82611 966.07056 684.31494 4278190080
896.59778 470.62161 235.53802 4278190080
97.557037 257.80154 142.20052 4278190080
734.05847 701.8811 312.84271 4278190080
1003.4211 820.10297 200.3846 4278190080
388.78918 756.92041 805.05408 4278190080
838.82184 538.18677 524.20428 4278190080
934.55756 482.00302 117.9295 4278190080
871.93561 377.04697 220.79086 4278190080
1001.171 519.90149 954.90466 4278190080
229.94775 317.72757 896.97522 4278190080
914.2627 190.32533 343.5968 4278190080
125.80071 287.88239 601.39832 4278190080
268.00122 1021.9409 279.27942 4278190080
580.84393 1001.362 75.382393 4278190080
781.22852 366.15115 832.3028 4278190080
562.28259 180.97299 346.48959 4278190080
62.486904 91.530533 828.49261 4278190080
180.41641 963.46613 181.53958 4278190080
401.20728 940.63708 701.44104 4278190080
332.11194 146.58484 1019.1686 4278190080
205.08713 36.847523 185.49399 4278190080
548.6839 162.64824 473.37637 4278190080
126.08226 430.64948 471.3172 4278190080
405.36166 1011.4934 448.67917 4278190080
480.74408 768.72192 814.83032 4278190080
289.04688 307.00455 995.80334 4278190080
635.5365 369.49146 63.333851 4278190080
440.02908 549.90784 2.7999892 4278190080
621.56866 951.11511 943.43707 4278190080
299.00974 259.22708 66.021912 4278190080
294.17841 464.31421 102.86943 4278190080
479.67239 1012.9981 265.51767 4278190080
953.04877 115.08038 696.16711 4278190080
400.36594 520.44208 683.66052 4278190080
849.0451 1001.1862 428.38248 4278190080
639.87549 266.233 735.38702 4278190080
611.67877 901.76947 80.878479 4278190080
675.01263 317.79858 630.78632 4278190080
677.81262 939.36725 557.90149 4278190080
597.24969 214.37701 817.12854 4278190080
663.27161 508.55539 257.44275 4278190080
766.14105 988.22778 246.44087 4278190080
7.6586967 917.27655 361.52124 4278190080
703.82581 293.64249 881.96332 4278190080
363.48636 118.6876 859.14941 4278190080
791.86884 758.56305 101.38246 4278190080
503.25586 346.24185 1003.152 4278190080
584.13434 1021.2545 296.95053 4278190080
190.92067 675.06708 212.31781 4278190080
748.82214 248.31677 426.69482 4278190080
541.95068 911.58838 935.25024 4278190080
799.39343 653.72943 899.47803 4278190080
21.83432 661.38812 792.75452 4278190080
383.35556 341.21393 62.397003 4278190080
241.31888 704.70032 181.08461 4278190080
76.46833 472.56912 939.64764 4278190080
177.85078 975.82501 261.8895 4278190080
157.00275 535.95935 259.14398 4278190080
453.95328 726.88 934.21106 4278190080
666.27112 451.70215 158.52783 4278190080
68.965904 993.65283 46.116199 4278190080
1004.2161 769.04633 699.84558 4278190080
879.69415 790.88062 337.2337 4278190080
648.44867 150.23621 678.44763 4278190080
710.84564 391.55508 359.14792 4278190080
891.93024 468.02341 831.71704 4278190080
807.57794 645.87421 783.54205 4278190080
45.467426 802.87695 295.50134 4278190080
304.61139 232.83023 1022.3813 4278190080
214.82245 899.10132 450.08353 4278190080
373.35028 968.06726 419.73639 4278190080
419.46646 948.28339 164.78268 4278190080
95.312073 803.97748 955.66333 4278190080
432.54578 428.42615 81.899521 4278190080
86.993401 115.2718 473.45462 4278190080
446.14133 1007.2021 941.47803 4278190080
253.85837 790.77997 563.35223 4278190080
13.400398 836.24744 342.22919 4278190080
308.90176 116.8588 575.05945 4278190080
307.28311 331.68124 450.16074 4278190080
757.36664 705.03156 394.228 4278190080
153.103 100.498 318.51135 4278190080
317.88568 195.81007 98.488823 4278190080
249.54901 628.35583 526.91498 4278190080
331.44852 715.34924 642.18677 4278190080
804.90314 137.49059 625.38879 4278190080
722.38116 391.34894 392.16879 4278190080
261.7334 404.74933 204.41621 4278190080
603.96259 713.65112 321.27502 4278190080
155.02202 1020.9342 652.9563 4278190080
605.18274 754.30084 333.98779 4278190080
999.41077 907.40381 434.48581 4278190080
293.92209 201.28951 630.2959 4278190080
392.41092 450.8385 234.65175 4278190080
919.32587 782.28705 950.00098 4278190080
537.51263 563.19019 63.491581 4278190080
138.90146 261.57135 454.84052 4278190080
531.07025 523.30475 859.58984 4278190080
735.48651 103.26737 549.24097 4278190080
32.761505 258.2894 546.17517 4278190080
685.71777 863.47217 276.47598 4278190080
1019.7056 838.88293 159.87981 4278190080
430.19141 108.80501 361.16931 4278190080
36.487282 501.21594 812.00781 4278190080
271.13904 396.54181 570.29486 4278190080
197.14003 934.05444 109.48505 4278190080
260.63162 48.955921 371.0564 4278190080
715.47211 580.02618 894.36121 4278190080
551.06201 291.51266 997.62854 4278190080
76.302956 324.27417 231.91794 4278190080
622.47815 1009.9919 71.390106 4278190080
898.9541 1005.6975 910.27301 4278190080
34.833927 411.88895 1019.078 4278190080
396.00323 448.37622 496.29395 4278190080
184.01108 719.51526 892.83575 4278190080
754.30597 916.65527 802.89026 4278190080
863.79102 153.28688 851.84613 4278190080
210.8474 868.75903 407.87234 4278190080
81.20858 395.82101 699.38501 4278190080
54.837128 472.12396 1023.6592 4278190080
286.75507 70.602081 1009.6511 4278190080
358.14517 969.55621 991.34869 4278190080
244.4182 1004.3901 379.23761 4278190080
239.49622 376.39337 827.61383 4278190080
735.79016 560.40442 523.12909 4278190080
604.62598 290.71039 415.78433 4278190080
383.51617 130.50139 569.07123 4278190080
211.36234 341.34879 413.83023 4278190080
619.23468 422.55737 809.65125 4278190080
294.61969 477.3945 257.77518 4278190080
294.2789 764.14954 328.37726 4278190080
279.93002 98.294731 273.93347 4278190080
247.27872 342.71292 254.32358 4278190080
626.51636 582.20917 630.71692 4278190080
430.13019 293.99933 167.12138 4278190080
953.25928 898.62531 457.83179 4278190080
345.04358 258.14145 588.33313 4278190080
914.11481 469.50381 929.68195 4278190080
303.94504 64.73848 328.23929 4278190080
89.596252 359.35818 805.63379 4278190080
347.37143 653.63708 545.78333 4278190080
675.74872 933.56708 644.07806 4278190080
949.68213 156.84583 986.79102 4278190080
180.00574 783.36218 545.00012 4278190080
810.72266 189.49234 838.99945 4278190080
977.84406 118.7516 713.62476 4278190080
411.67584 463.7952 971.76624 4278190080
1000.009 353.91 417.27002 4278190080
905.69092 657.85504 482.00851 4278190080
209.93025 747.45129 841.3667 4278190080
1015.564 70.822716 471.00375 4278190080
537.34741 746.57141 380.57083 4278190080
157.42548 672.25354 537.41669 4278190080
120.21648 852.25928 296.77884 4278190080
665.21661 638.98199 486.27118 4278190080
480.21609 592.82605 605.02277 4278190080
169.84085 1004.5019 44.817978 4278190080
117.60706 980.51086 398.728 4278190080
534.87708 862.20184 32.583015 4278190080
1016.8856 48.132088 780.0343 4278190080
834.25226 39.696129 850.85699 4278190080
281.25601 577.04352 573.42841 4278190080
661.82684 734.46899 221.68199 4278190080
175.2435 854.68549 49.941277 4278190080
472.02234 495.9021 688.92322 4278190080
958.29352 976.11823 257.74927 4278190080
539.31628 121.95905 238.25116 4278190080
584.13428 239.56612 194.76204 4278190080
982.86224 774.44318 32.963879 4278190080
1015.4453 767.3288 81.095963 4278190080
771.47955 577.58105 120.7921 4278190080
598.33661 858.83704 697.83563 4278190080
147.76501 496.66388 408.30463 4278190080
369.44702 671.90741 238.99008 4278190080
419.38828 119.92974 734.89221 4278190080
84.311531 54.223255 687.01038 4278190080
342.06082 593.53955 808.96942 4278190080
580.31195 153.67383 24.535553 4278190080
775.07404 112.53609 798.97876 4278190080
808.0379 103.98136 542.30756 4278190080
889.13385 875.46094 95.888588 4278190080
1009.926 449.79755 954.72565 4278190080
683.7616 597.56256 427.38953 4278190080
68.066193 967.00958 75.296928 4278190080
307.05627 362.39786 195.22667 4278190080
17.948471 446.70938 249.44992 4278190080
704.95886 788.7702 842.9895 4278190080
489.92828 345.08215 996.66333 4278190080
514.46387 96.156181 85.199394 4278190080
289.4426 904.19409 189.18076 4278190080
831.75012 769.32794 40.641701 4278190080
927.63873 755.25391 490.43924 4278190080
858.36438 415.0155 64.001793 4278190080
261.75391 483.0817 7.0113559 4278190080
337.05084 790.13794 369.40921 4278190080
532.27753 808.08643 816.11859 4278190080
781.72742 489.04529 580.88879 4278190080
600.71692 978.97357 925.97095 4278190080
573.38019 469.43744 1022.1271 4278190080
658.57959 758.88007 902.32123 4278190080
847.76038 566.63019 647.64917 4278190080
888.40204 470.26892 378.90308 4278190080
354.84131 304.6333 793.91858 4278190080
418.84308 566.38721 253.00024 4278190080
425.85443 903.43799 19.138206 4278190080
795.26367 411.71552 827.22467 4278190080
587.38226 169.44295 292.26993 4278190080
144.27101 770.15985 247.24353 4278190080
46.241962 319.54007 716.68097 4278190080
44.369095 978.11969 451.561 4278190080
946.69031 801.88 1018.1912 4278190080
570.33948 666.2821 464.46011 4278190080
949.24255 1021.1234 769.09344 4278190080
719.16107 415.96649 311.48059 4278190080
972.16132 841.82092 190.91862 4278190080
991.29956 613.08459 602.63416 4278190080
794.52417 176.46681 772.07709 4278190080
62.794117 320.73782 518.23694 4278190080
310.03766 366.9798 837.77698 4278190080
2.7186222 411.34888 791.89667 4278190080
454.27963 334.03918 569.77667 4278190080
448.47086 904.37866 212.05879 4278190080
912.93097 829.62122 209.18217 4278190080
658.02441 524.78229 625.14868 4278190080
969.505 472.9436 442.96957 4278190080
136.42361 440.24316 32.054157 4278190080
739.05774 210.76733 208.52097 4278190080
487.13483 273.56146 529.25879 4278190080
1005.3718 583.59912 896.23859 4278190080
819.1488 586.31775 283.58749 4278190080
587.04547 16.597359 617.62671 4278190080
132.82214 465.06821 498.00534 4278190080
344.88092 353.99918 303.62653 4278190080
554.06311 1012.0236 828.40881 4278190080
155.21176 957.52856 277.35245 4278190080
598.18134 69.952187 717.59558 4278190080
630.23547 809.00995 928.36292 4278190080
838.75647 272.14478 177.92436 4278190080
344.01526 253.51656 761.52344 4278190080
216.25388 48.665344 323.84119 4278190080
499.84137 635.71082 340.43854 4278190080
93.468048 768.53296 805.50677 4278190080
591.47339 89.413872 135.50594 4278190080
895.09991 643.47699 123.52951 4278190080
699.50873 798.68872 57.058079 4278190080
976.86121 372.87009 127.01026 4278190080
670.45679 1003.1056 936.0202 4278190080
574.8197 817.86206 184.16499 4278190080
752.74402 137.87733 437.68155 4278190080
490.26749 354.13123 486.34689 4278190080
814.10864 853.9726 98.057686 4278190080
130.54721 947.44061 866.59064 4278190080
936.05396 514.914 956.00452 4278190080
47.559887 386.01392 575.48151 4278190080
171.0894 61.522675 350.17023 4278190080
228.14748 14.38385 723.04034 4278190080
355.15775 684.84064 702.14594 4278190080
267.17795 235.66028 496.00797 4278190080
451.34293 988.4043 633.88531 4278190080
889.02448 454.67181 988.01654 4278190080
351.37137 244.78049 817.98907 4278190080
449.42905 375.3277 741.42969 4278190080
292.01968 287.38165 232.34372 4278190080
224.02417 334.94153 618.35767 4278190080
799.50568 506.03094 679.88031 4278190080
125.67588 734.17841 694.26416 4278190080
848.71619 65.336151 355.1048 4278190080
526.86212 332.5141 590.76508 4278190080
1022.8701 783.85699 555.16937 4278190080
632.75537 648.88147 1009.8412 4278190080
596.77191 1000.2529 230.6217 4278190080
390.76099 425.68192 605.9494 4278190080
108.1907 717.7016 893.33105 4278190080
340.53442 941.72577 204.2726 4278190080
958.89209 717.23145 710.30353 4278190080
614.7724 842.90729 420.48193 4278190080
285.03656 667.62354 485.81808 4278190080
640.14136 170.48561 818.33221 4278190080
206.90642 169.3557 578.18921 4278190080
762.07581 802.11108 203.07069 4278190080
747.91699 374.88297 179.32356 4278190080
978.5387 765.64398 605.00549 4278190080
560.4881 873.83466 298.70709 4278190080
429.81915 190.36911 216.43286 4278190080
634.09174 125.26118 933.66431 4278190080
320.39529 740.03357 752.57159 4278190080
740.87726 1.0701342 396.19513 4278190080
202.69534 641.21149 566.68073 4278190080
1021.0275 848.11792 736.03644 4278190080
575.21674 586.19373 514.14752 4278190080
778.28741 310.11072 889.03046 4278190080
957.61102 264.64941 630.67444 4278190080
538.61646 825.13751 480.50912 4278190080
837.32355 230.9567 670.87823 4278190080
29.756416 865.04846 796.1394 4278190080
963.42072 161.44376 512.17297 4278190080
691.99231 902.32098 513.2431 4278190080
64.187431 81.016335 130.45461 4278190080
630.86816 78.043861 978.57251 4278190080
342.90457 653.26062 540.76617 4278190080
857.05206 407.54803 850.87689 4278190080
722.08258 341.15903 91.526337 4278190080
328.75702 879.77551 916.66388 4278190080
809.26617 693.09906 123.62056 4278190080
456.14438 722.85547 988.66901 4278190080
228.2838 662.27618 126.11276 4278190080
740.45679 330.26849 4.4337583 4278190080
229.69991 394.45593 85.450096 4278190080
360.15451 1.3240829 163.49396 4278190080
314.72702 344.22867 816.75458 4278190080
855.49323 177.28075 200.30258 4278190080
682.37012 899.36328 541.46161 4278190080
773.89642 204.12032 397.23712 4278190080
666.5603 1013.3865 66.336166 4278190080
790.18085 445.53085 789.19165 4278190080
754.84991 673.81464 427.46783 4278190080
880.96265 390.27145 757.73633 4278190080
885.39642 619.97137 128.19225 4278190080
970.8465 980.12585 129.51633 4278190080
110.34046 270.85287 473.745 4278190080
927.09503 102.34608 651.02576 4278190080
103.39761 784.71619 526.38904 4278190080
644.85919 534.61267 730.50934 4278190080
18.096321 177.17297 719.89581 4278190080
84.432487 967.35382 141.42667 4278190080
873.62415 698.20374 815.24133 4278190080
277.09195 555.16638 181.51276 4278190080
10.828263 416.56281 801.48413 4278190080
139.02051 363.4093 757.60999 4278190080
268.53683 473.74976 4.462862 4278190080
742.2818 376.84479 106.80894 4278190080
369.30756 480.2424 891.52515 4278190080
895.69659 101.1016 402.13782 4278190080
602.20593 119.19792 579.31079 4278190080
298.10175 203.6304 522.66461 4278190080
439.52841 53.254536 196.86835 4278190080
230.76973 330.3465 752.03473 4278190080
412.2825 341.17474 144.59755 4278190080
189.76662 480.19525 508.00684 4278190080
947.37659 748.73206 981.75659 4278190080
951.83948 467.01389 334.60141 4278190080
34.648411 836.32141 814.84381 4278190080
926.17358 708.01801 915.94537 4278190080
304.31137 286.22394 11.143314 4278190080
883.62213 584.32568 214.77373 4278190080
382.28674 1023.8541 268.02826 4278190080
579.15509 230.62386 598.37476 4278190080
307.18985 642.90637 939.5495 4278190080
451.78738 832.67297 395.74472 4278190080
959.79425 756.04956 120.47681 4278190080
917.55084 683.88904 587.49072 4278190080
228.15225 718.53741 399.81213 4278190080
18.99605 620.711 83.830147 4278190080
934.94147 925.02234 370.05411 4278190080
946.08478 784.64447 954.37982 4278190080
136.85847 142.93124 954.23389 4278190080
404.88675 722.08636 160.85776 4278190080
1003.2615 5.2762017 803.7641 4278190080
918.81097 457.0636 612.43707 4278190080
290.55569 392.85785 344.48663 4278190080
411.0325 286.40869 4.3756623 4278190080
998.52319 514.56097 722.91309 4278190080
374.33533 533.55701 319.62408 4278190080
458.16547 444.49844 220.64645 4278190080
828.21954 366.58319 1005.291 4278190080
758.59937 503.44168 124.22218 4278190080
688.83325 908.32843 846.30853 4278190080
849.69104 887.5899 851.58472 4278190080
629.45514 782.40082 284.64835 4278190080
217.89221 48.956532 677.50616 4278190080
562.37885 459.98901 963.91486 4278190080
566.75452 434.51221 454.4758 4278190080
265.6676 808.84753 988.03284 4278190080
585.29169 243.01299 408.53125 4278190080
805.93817 47.232536 775.11444 4278190080
787.22913 805.83191 254.55614 4278190080
911.45129 470.66516 138.88455 4278190080
733.75983 296.3562 2.4744434 4278190080
561.34454 925.81134 784.87531 4278190080
845.99292 119.70354 833.83185 4278190080
499.49905 682.0824 269.82083 4278190080
439.41391 224.8369 704.33307 4278190080
893.88971 490.50452 489.18057 4278190080
857.92255 51.796223 732.19354 4278190080
242.45381 857.73438 779.42609 4278190080
1017.5683 620.9635 561.258 4278190080
248.1244 508.41476 7.923131 4278190080
387.00897 218.17458 304.27933 4278190080
389.4834 779.51917 206.09065 4278190080
150.35869 601.51202 325.79419 4278190080
984.19049 77.011093 1007.8766 4278190080
230.01137 516.42499 208.71349 4278190080
934.34442 386.31476 699.21802 4278190080
399.52499 220.2373 751.01422 4278190080
107.71854 462.6911 584.7486 4278190080
887.14465 456.25937 181.71208 4278190080
424.40259 704.38379 690.12683 4278190080
432.32574 67.392746 908.30139 4278190080
736.60504 456.87616 663.82056 4278190080
942.69568 607.23486 241.33258 4278190080
244.48988 567.42535 318.34369 4278190080
228.36647 797.43671 834.76868 4278190080
437.07996 707.78113 197.08344 4278190080
112.29796 83.306122 417.32074 4278190080
863.31219 191.02466 880.01184 4278190080
424.06079 54.169289 312.27121 4278190080
605.77289 478.5719 1016.655 4278190080
271.89972 910.89764 60.047752 4278190080
156.20113 623.50269 516.92389 4278190080
820.02167 542.19836 100.15875 4278190080
37.354263 786.68823 667.58411 4278190080
355.69794 1015.0547 441.02084 4278190080
166.46663 428.13467 124.80199 4278190080
363.55005 540.43262 208.10811 4278190080
780.87079 379.74481 399.13278 4278190080
636.88263 803.8056 453.30206 4278190080
949.15387 385.57846 931.87396 4278190080
941.80884 657.47815 818.77155 4278190080
1001.8566 813.67932 418.27423 4278190080
494.78052 609.70099 960.4726 4278190080
594.93927 647.05524 723.16083 4278190080
238.52341 1002.7532 714.21552 4278190080
679.54425 145.2198 118.35021 4278190080
804.34625 508.76987 658.78284 4278190080
1012.4543 265.64066 14.527654 4278190080
387.58713 902.52332 818.33325 4278190080
840.88916 827.67719 179.91173 4278190080
748.76312 745.48602 837.38989 4278190080
543.53473 723.34265 627.06921 4278190080
961.8089 194.12317 212.77017 4278190080
898.28149 789.06244 859.82538 4278190080
597.44232 3.5858631 838.57861 4278190080
287.6579 683.13013 983.7984 4278190080
406.00809 463.47635 468.56824 4278190080
40.790936 451.93069 734.20892 4278190080
55.318588 839.51782 612.73224 4278190080
873.65186 656.40704 416.40936 4278190080
29.563568 381.17017 137.8954 4278190080
866.95349 924.70483 861.23804 4278190080
470.02264 862.51379 31.361229 4278190080
682.79285 736.79529 820.42371 4278190080
518.61823 310.23764 824.00952 4278190080
333.19681 597.89551 483.13968 4278190080
292.99521 1003.9036 946.61603 4278190080
761.56348 20.69455 374.54672 4278190080
471.77237 76.013138 190.06456 4278190080
60.504578 949.66498 846.47156 4278190080
476.91394 979.22858 203.64174 4278190080
614.80939 822.18201 104.3466 4278190080
452.04742 268.20468 966.86035 4278190080
483.40863 950.9975 679.65564 4278190080
279.83234 445.61572 989.89331 4278190080
79.841881 778.81256 563.78882 4278190080
562.98157 47.807755 543.69244 4278190080
485.59756 809.37122 564.38696 4278190080
860.14429 257.14355 640.40015 4278190080
26.20886 317.64813 566.06512 4278190080
872.68042 794.56207 521.29364 4278190080
52.322182 385.37146 319.47568 4278190080
156.66878 837.41888 587.68036 4278190080
99.52916 296.82751 514.67786 4278190080
779.18481 576.65985 960.29358 4278190080
745.07812 656.50171 715.10614 4278190080
284.86694 195.48328 762.91388 4278190080
828.55939 681.08087 548.2851 4278190080
368.94635 517.22516 805.42865 4278190080
1009.3465 543.43402 99.076797 4278190080
551.41156 392.11444 893.63892 4278190080
48.705223 444.43665 255.01036 4278190080
368.18088 601.10541 68.42923 4278190080
955.86121 700.63458 365.25674 4278190080
446.53906 455.8194 941.91656 4278190080
382.83264 176.89752 574.41833 4278190080
73.938766 461.76447 769.90161 4278190080
836.85266 266.32385 426.98245 4278190080
361.13773 635.2702 944.20758 4278190080
142.56638 620.61664 463.6416 4278190080
241.64317 148.02823 855.75604 4278190080
111.28208 196.73346 276.19269 4278190080
366.29245 564.91437 877.2981 4278190080
434.72168 496.77557 553.93268 4278190080
799.97839 943.31464 1009.7521 4278190080
717.89502 302.14731 162.64957 4278190080
268.31329 376.08606 624.414 4278190080
14.214899 188.93872 890.73785 4278190080
441.19733 550.07642 502.00806 4278190080
361.40494 692.64282 98.62471 4278190080
825.04651 934.28601 246.65294 4278190080
656.80255 21.568083 443.38638 4278190080
932.99524 387.8605 1008.3007 4278190080
786.29333 822.58215 481.07632 4278190080
316.22598 598.56061 400.39096 4278190080
301.97803 292.4556 702.53827 4278190080
464.62759 560.76892 54.62434 4278190080
65.041626 574.98376 243.56305 4278190080
955.77948 1016.1812 793.63953 4278190080
433.78754 353.58606 462.28232 4278190080
532.41223 154.63257 372.56833 4278190080
779.06519 811.43512 394.13641 4278190080
198.4516 720.43036 781.99695 4278190080
182.75233 482.72369 580.5791 4278190080
663.82867 798.94971 155.13971 4278190080
40.219627 76.927719 447.59528 4278190080
742.75787 541.5553 1008.3642 4278190080
797.38226 606.59692 559.34796 4278190080
16.94529 538.3764 551.52911 4278190080
810.58478 972.16394 905.11517 4278190080
248.86711 480.57623 35.74773 4278190080
621.43542 235.64142 847.18286 4278190080
1015.5718 434.09302 543.61322 4278190080
773.56879 616.84534 2.3369474 4278190080
330.14789 256.67401 801.28662 4278190080
485.2876 296.89365 878.21436 4278190080
932.88287 15.651534 395.76965 4278190080
917.24707 813.03375 1002.3666 4278190080
452.59503 829.97906 516.74304 4278190080
1004.1241 616.56384 464.90698 4278190080
885.23932 865.43097 945.48322 4278190080
920.987 462.86639 157.12463 4278190080
744.16986 454.43826 591.21765 4278190080
263.78314 204.00703 184.06302 4278190080
266.12009 534.15491 440.73703 4278190080
43.406712 1019.4425 737.63068 4278190080
921.62109 928.32544 753.28223 4278190080
293.39072 821.57245 542.31598 4278190080
271.75732 250.16751 348.29501 4278190080
788.50037 230.29164 964.85889 4278190080
229.40735 91.53093 806.28986 4278190080
150.89056 1012.5179 245.15623 4278190080
308.0152 732.68781 699.59448 4278190080
899.23285 996.47095 903.6015 4278190080
59.295868 238.59103 413.75644 4278190080
500.0329 281.99774 409.19897 4278190080
213.66356 179.6188 313.52438 4278190080
966.94574 473.00955 111.09686 4278190080
485.26172 744.76685 361.26437 4278190080
833.55676 509.26721 591.55603 4278190080
774.41565 738.67456 683.08691 4278190080
556.70544 889.56512 671.60486 4278190080
801.86169 173.58032 380.29272 4278190080
477.45618 48.813183 352.76367 4278190080
357.05771 108.10905 591.35474 4278190080
770.81415 608.14197 873.35248 4278190080
156.01314 821.80548 28.971258 4278190080
469.53754 764.75128 501.9808 4278190080
580.6344 226.013 222.74767 4278190080
941.89874 35.569756 732.01489 4278190080
509.45474 809.98535 446.68945 4278190080
168.54169 342.69083 312.25458 4278190080
840.14655 120.55253 485.83493 4278190080
196.43929 598.00873 534.64813 4278190080
549.20294 955.06641 642.75714 4278190080
116.55766 701.88055 226.89909 4278190080
989.9101 857.89368 24.704609 4278190080
1018.8813 303.43121 789.45587 4278190080
496.86215 884.06561 1015.4689 4278190080
719.6098 801.96436 27.038631 4278190080
427.62473 287.41913 837.02399 4278190080
874.31421 455.96082 155.71486 4278190080
162.56877 272.10739 276.2674 4278190080
648.40369 468.54666 874.27612 4278190080
159.0518 1017.7496 805.34253 4278190080
801.80896 110.30728 483.22308 4278190080
4.7080503 76.217392 317.11679 4278190080
29.412659 71.098763 620.54803 4278190080
818.86853 567.96094 480.61362 4278190080
810.3374 263.57077 258.578 4278190080
837.37604 691.1955 545.99713 4278190080
650.40009 541.50964 1001.9579 4278190080
806.11493 704.07843 250.06532 4278190080
58.382301 328.48212 718.612 4278190080
932.65839 487.53391 712.36163 4278190080
714.00092 265.34286 822.66888 4278190080
173.22398 270.05093 898.88629 4278190080
490.34076 299.46359 969.98505 4278190080
86.888763 94.332115 513.94598 4278190080
567.50238 904.66956 777.51672 4278190080
826.08038 718.04559 444.71222 4278190080
348.07748 344.44562 986.22186 4278190080
326.03543 126.56055 666.30029 4278190080
576.10077 184.94284 994.78241 4278190080
270.71274 93.601242 458.31635 4278190080
983.07434 807.60217 723.65924 4278190080
781.74323 980.82611 993.71014 4278190080
656.62952 447.1669 269.17371 4278190080
602.61462 534.05566 363.50583 4278190080
92.560585 77.558029 244.17535 4278190080
870.07733 903.63843 962.22095 4278190080
290.78955 227.7159 282.66656 4278190080
253.01143 553.75134 409.22711 4278190080
919.31171 105.85208 594.16998 4278190080
890.09418 376.56482 687.77118 4278190080
324.41052 335.63916 471.37335 4278190080
24.069729 93.382416 428.19949 4278190080
1017.7798 750.01196 875.36639 4278190080
262.95358 328.62656 385.42203 4278190080
626.45941 421.18713 462.98004 4278190080
870.63477 267.26447 342.61847 4278190080
808.85571 558.05402 570.33435 4278190080
67.522278 811.06543 100.08569 4278190080
476.74939 706.37714 205.93777 4278190080
46.919342 572.47131 582.50256 4278190080
734.69055 896.88184 918.14178 4278190080
182.0639 920.95154 1011.5242 4278190080
610.26337 914.73145 737.53613 4278190080
461.62976 153.68501 42.162674 4278190080
847.05176 780.14441 463.34982 4278190080
286.03183 626.77924 730.61426 4278190080
628.65033 411.63492 264.66827 4278190080
174.98466 479.1572 51.7337 4278190080
275.07037 955.90656 758.11084 4278190080
481.00815 1002.8259 306.58215 4278190080
39.510723 713.51648 179.46399 4278190080
957.65247 895.58038 76.415543 4278190080
945.17664 481.84375 991.14697 4278190080
658.71277 943.47351 120.83197 4278190080
700.87543 766.52533 900.97638 4278190080
140.22525 28.557148 503.75562 4278190080
870.83954 657.20746 915.3905 4278190080
111.5078 832.19214 370.54773 4278190080
163.2415 83.262482 302.45432 4278190080
921.35236 564.27063 281.28024 4278190080
203.93451 603.78131 994.79669 4278190080
383.3985 537.43384 866.37708 4278190080
459.81406 458.61047 324.22086 4278190080
426.961 93.323235 243.69438 4278190080
547.79297 794.19867 1010.2197 4278190080
424.76938 934.42395 14.776834 4278190080
928.52496 781.26343 671.98431 4278190080
819.91553 892.77124 480.17639 4278190080
166.46324 32.012745 563.4389 4278190080
468.91754 953.36511 103.7095 4278190080
750.19781 133.29961 707.49084 4278190080
720.99451 516.69812 220.92465 4278190080
563.37158 976.51215 679.5351 4278190080
887.59247 379.47314 772.85834 4278190080
107.28683 927.26611 543.05701 4278190080
93.506516 328.03552 453.48096 4278190080
108.28336 232.56049 210.7444 4278190080
780.26764 28.476004 79.515656 4278190080
236.44405 194.93924 111.5284 4278190080
799.88293 663.85681 40.893486 4278190080
903.59241 390.0546 174.1931 4278190080
587.08325 87.04911 690.89117 4278190080
808.00787 650.42072 643.40338 4278190080
463.543 514.01318 1022.8765 4278190080
212.40135 621.29999 926.14264 4278190080
755.45837 714.80652 230.17816 4278190080
184.9393 823.08984 462.73865 4278190080
395.68372 579.35748 491.21466 4278190080
475.19937 815.80157 686.15387 4278190080
586.72778 591.68451 326.01068 4278190080
627.62122 471.27692 716.06531 4278190080
801.81433 34.360168 803.11438 4278190080
468.70554 842.36804 429.5351 4278190080
88.108894 281.91107 943.54828 4278190080
86.985405 494.31241 540.84827 4278190080
1013.1281 225.77078 231.65479 4278190080
219.30621 410.71008 30.744652 4278190080
682.04486 806.3938 610.10217 4278190080
149.25951 257.59314 401.90372 4278190080
835.41339 844.32092 993.5882 4278190080
137.42409 447.94217 440.86511 4278190080
853.48938 225.75648 475.22528 4278190080
632.60376 694.46204 293.59335 4278190080
38.138885 782.57092 575.50439 4278190080
981.68713 869.55634 45.816845 4278190080
498.53543 858.68439 271.58762 4278190080
730.19019 53.990593 682.29773 4278190080
760.93488 736.03546 464.6915 4278190080
347.03702 885.29492 722.28467 4278190080
748.94073 696.70831 542.60559 4278190080
718.52893 834.13245 990.54773 4278190080
135.39404 663.62183 192.30421 4278190080
610.61932 272.22559 886.76624 4278190080
904.21265 310.36447 645.33716 4278190080
455.71707 268.05164 490.89349 4278190080
501.53394 766.58704 325.57788 4278190080
773.12158 472.77728 379.56848 4278190080
431.41928 209.71213 91.603935 4278190080
896.11078 556.74915 976.89886 4278190080
594.39545 281.68988 649.60724 4278190080
113.00101 1000.2188 459.73965 4278190080
79.548737 111.61285 99.361458 4278190080
271.85297 722.23218 371.58704 4278190080
134.6192 602.44482 681.95154 4278190080
779.95636 34.161915 950.00317 4278190080
246.8499 535.69586 692.59021 4278190080
572.4278 284.81738 141.36749 4278190080
951.99628 716.23663 351.07962 4278190080
19.600204 588.34741 907.8288 4278190080
996.49908 158.74287 165.51865 4278190080
622.10632 271.7439 141.73747 4278190080
57.845951 351.29263 253.35033 4278190080
157.20741 623.14557 975.58252 4278190080
528.79443 757.76477 554.02734 4278190080
186.74599 513.72119 588.18927 4278190080
112.74915 760.57111 99.885086 4278190080
805.33936 308.99887 384.70248 4278190080
946.70685 236.99513 76.93914 4278190080
273.78647 256.59534 665.28656 4278190080
157.61525 229.09442 824.02948 4278190080
323.13391 851.20074 71.773354 4278190080
464.87137 909.04669 423.06598 4278190080
718.22168 42.254086 22.211576 4278190080
669.8042 571.04852 779.97638 4278190080
199.83153 757.79449 269.69757 4278190080
788.02075 870.54364 6.2686362 4278190080
887.90588 651.88306 315.26749 4278190080
248.60834 574.5899 552.26263 4278190080
325.54749 848.37634 808.85797 4278190080
990.83405 1005.9916 13.952402 4278190080
790.86353 305.12555 865.15314 4278190080
862.6369 769.99689 750.19983 4278190080
261.70288 464.21863 792.45392 4278190080
283.91443 110.02282 339.50244 4278190080
39.89082 309.85437 73.296951 4278190080
309.58838 73.87513 943.84064 4278190080
315.85703 961.78101 571.72363 4278190080
631.12451 186.38933 122.31354 4278190080
159.38715 511.93683 970.68994 4278190080
968.24512 478.77087 952.68152 4278190080
982.19751 245.6344 233.80707 4278190080
823.35065 84.271278 1003.804 4278190080
549.55048 345.97415 444.02261 4278190080
318.00436 629.88861 554.04541 4278190080
657.50677 669.77942 863.89978 4278190080
730.80371 979.3678 937.7749 4278190080
650.64435 271.22479 875.55591 4278190080
198.36801 902.3493 37.945244 4278190080
320.68155 37.736477 549.88208 4278190080
267.37146 1005.9816 4.6529326 4278190080
196.05299 964.17914 250.28734 4278190080
429.86008 763.52979 334.55862 4278190080
409.66406 289.08026 680.53278 4278190080
853.68665 607.08459 286.42136 4278190080
383.73209 240.5914 956.20074 4278190080
223.63188 971.39514 911.56854 4278190080
137.4068 598.03949 158.79337 4278190080
1012.9627 796.40753 37.142693 4278190080
26.907957 93.089058 74.879166 4278190080
576.79004 360.46051 56.860771 4278190080
581.44293 556.51349 1021.0399 4278190080
831.73029 986.3736 760.5697 4278190080
142.28889 372.03766 25.649975 4278190080
822.82166 201.72432 632.73462 4278190080
85.243019 585.45642 873.32599 4278190080
17.443787 809.08832 820.72113 4278190080
929.01233 946.49512 394.76065 4278190080
63.805717 935.45782 167.16817 4278190080
100.94841 962.36578 260.25723 4278190080
175.82758 515.15582 620.71771 4278190080
232.68834 72.59874 153.23126 4278190080
229.72826 904.32904 115.60484 4278190080
990.29797 22.61792 487.64249 4278190080
1015.9479 845.43958 689.36682 4278190080
624.68256 930.68262 250.82323 4278190080
474.00854 948.1264 35.911533 4278190080
270.72968 853.13873 982.40662 4278190080
665.49036 916.94446 893.86444 4278190080
832.65851 1017.8929 832.23022 4278190080
68.915741 169.72043 323.38605 4278190080
689.63348 402.40878 395.98477 4278190080
842.86475 632.13702 276.31381 4278190080
958.4696 598.435 298.93173 4278190080
422.11206 590.38293 120.37131 4278190080
87.478882 191.06548 27.053909 4278190080
338.30209 665.07404 975.1803 4278190080
374.21365 935.80371 804.31903 4278190080
332.62027 577.29407 697.26349 4278190080
202.48476 385.95258 691.15631 4278190080
10.714998 454.86832 860.87677 4278190080
334.10104 120.50179 239.28554 4278190080
730.08582 963.36652 871.42255 4278190080
1006.3997 897.83612 445.85757 4278190080
281.33136 295.94818 12.240511 4278190080
401.70267 383.42706 203.30598 4278190080
428.75656 721.72919 868.38 4278190080
379.93686 71.942802 780.18372 4278190080
160.25591 404.56308 333.47775 4278190080
857.51935 607.04785 719.4303 4278190080
524.67572 617.76282 150.29861 4278190080
361.55249 951.86389 270.80042 4278190080
600.83801 657.94971 210.16693 4278190080
448.26059 640.3493 84.003029 4278190080
894.11816 921.68066 379.9512 4278190080
906.3587 299.38336 763.37823 4278190080
85.664658 728.13995 461.10742 4278190080
954.04468 84.076797 533.05023 4278190080
710.22833 244.3327 937.61328 4278190080
19.706104 77.852074 520.66113 4278190080
739.13641 602.52777 114.42397 4278190080
889.435 964.08026 42.287849 4278190080
136.23543 540.91827 700.23755 4278190080
346.40234 989.17889 316.58688 4278190080
430.4054 859.29706 214.26756 4278190080
810.35657 741.6557 513.65094 4278190080
549.73486 827.32037 217.79083 4278190080
1010.8423 757.36505 301.86765 4278190080
519.89246 443.59338 546.20032 4278190080
433.5058 463.2995 624.05243 4278190080
954.16693 178.4359 202.58018 4278190080
44.5909 43.870926 142.66045 4278190080
86.878754 180.10635 683.57874 4278190080
787.11627 526.50873 648.75763 4278190080
79.703178 956.91406 484.05463 4278190080
293.97073 743.27069 201.71034 4278190080
807.62164 269.00552 5.0307136 4278190080
1.4124913 255.84778 762.39575 4278190080
303.28012 775.74023 181.98912 4278190080
849.48047 185.24605 645.28864 4278190080
449.53287 115.41297 823.72449 4278190080
652.11304 160.00388 867.59546 4278190080
794.7735 246.88263 23.701792 4278190080
454.35223 9.9989319 550.21051 4278190080
79.109833 89.70211 483.1246 4278190080
563.16449 383.67285 202.39528 4278190080
764.87482 167.29449 471.40079 4278190080
769.90552 168.70699 727.2486 4278190080
508.30127 471.98712 478.98886 4278190080
690.29041 297.46759 664.23492 4278190080
311.57901 747.00043 779.64789 4278190080
111.30351 375.11349 939.65173 4278190080
978.89893 145.88701 162.53438 4278190080
1002.6008 600.23926 172.53331 4278190080
528.81122 679.34906 262.23541 4278190080
1011.9359 218.51355 645.90826 4278190080
190.3311 983.38837 813.20276 4278190080
661.73187 729.29388 981.90973 4278190080
364.98047 213.59517 429.89688 4278190080
843.96936 903.88556 727.36444 4278190080
484.20422 191.46457 450.3649 4278190080
239.8521 302.76807 825.47839 4278190080
155.50385 257.66702 971.36542 4278190080
318.03821 236.26776 547.60461 4278190080
490.57153 765.07898 202.9537 4278190080
752.80695 753.01483 421.46725 4278190080
374.71521 943.34595 380.85562 4278190080
163.91798 581.07788 86.149513 4278190080
121.82774 946.05835 299.74469 4278190080
551.72461 766.02765 179.63023 4278190080
255.08907 226.23189 371.09479 4278190080
705.45398 466.08398 673.86285 4278190080
506.93237 621.58783 931.52991 4278190080
454.29776 939.62604 143.79767 4278190080
1001.9024 406.19757 908.87665 4278190080
180.85611 135.00453 637.89154 4278190080
602.32336 509.71973 557.23749 4278190080
983.17896 673.6377 114.31531 4278190080
45.328491 795.46545 36.373646 4278190080
345.07318 323.19006 802.40131 4278190080
524.70343 578.27911 4.6332035 4278190080
895.79822 259.73309 470.71719 4278190080
545.66107 766.66547 68.305023 4278190080
453.19098 196.96321 1007.9311 4278190080
596.98865 174.8656 390.12866 4278190080
481.8653 355.72171 525.13318 4278190080
95.756821 958.04504 10.852929 4278190080
652.99426 917.22406 684.49066 4278190080
767.30957 962.55255 455.95609 4278190080
803.68323 283.6257 779.14618 4278190080
582.08453 808.3291 333.42529 4278190080
586.71777 680.12732 593.15839 4278190080
33.434952 201.78841 335.82382 4278190080
101.73997 654.97937 532.78705 4278190080
85.671059 227.96802 707.65265 4278190080
475.79971 709.83331 39.374359 4278190080
1000.9329 805.59015 997.41943 4278190080
1011.7858 434.58444 890.64349 4278190080
672.27649 177.89404 829.19604 4278190080
104.23258 981.57727 88.821732 4278190080
883.37872 539.6618 897.15088 4278190080
192.80402 102.37959 553.2782 4278190080
785.9624 135.81454 755.06659 4278190080
97.786224 237.55452 386.04599 4278190080
630.57324 323.22559 614.01398 4278190080
314.22592 799.02533 299.84735 4278190080
353.60028 775.95819 81.4375 4278190080
327.01971 763.74408 516.02197 4278190080
193.66318 412.02054 693.91595 4278190080
1022.8592 516.25311 651.49329 4278190080
87.680931 375.63187 167.15509 4278190080
984.83179 568.43585 269.5347 4278190080
514.10999 330.39828 405.34924 4278190080
245.17656 428.18451 642.90375 4278190080
631.22253 34.757774 966.12933 4278190080
221.23656 348.9837 741.1546 4278190080
521.08392 702.58398 493.11285 4278190080
602.52142 5.6036668 232.8569 4278190080
94.543343 199.26685 644.87744 4278190080
788.45935 198.12604 137.13057 4278190080
415.95258 285.80698 512.76245 4278190080
583.10767 246.63875 57.198303 4278190080
852.6424 760.74872 387.59659 4278190080
233.99159 1005.9253 815.78107 4278190080
876.89532 613.14783 850.53888 4278190080
819.02466 834.3844 175.52255 4278190080
536.17932 331.46829 878.10651 4278190080
5.2921453 933.98969 883.71021 4278190080
238.14905 4.5330243 58.977028 4278190080
883.02649 792.99237 257.10306 4278190080
1020.157 184.94493 542.91003 4278190080
508.91946 768.05261 789.54877 4278190080
566.1178 596.69495 526.29749 4278190080
953.71436 830.68658 508.22281 4278190080
745.49542 683.58191 97.370644 4278190080
572.0343 478.6066 931.755 4278190080
747.55682 1014.7859 239.22333 4278190080
601.66339 1020.0781 149.21301 4278190080
461.37354 234.22708 153.74603 4278190080
520.35059 93.253571 946.7384 4278190080
777.45367 89.410614 107.6833 4278190080
296.36368 598.33008 875.7359 4278190080
61.912476 140.44785 448.43088 4278190080
588.20996 70.162201 255.11746 4278190080
72.432793 815.65765 938.6994 4278190080
169.80344 363.69193 393.30597 4278190080
77.558472 87.248779 384.09189 4278190080
316.7818 688.91217 380.16992 4278190080
465.99481 126.28569 614.39703 4278190080
