# .PCD v0.7 - Point Cloud Data file format
VERSION 0.7
FIELDS x y z rgb
SIZE 4 4 4 4
TYPE F F F U
COUNT 1 1 1 1
WIDTH 1175
HEIGHT 1
VIEWPOINT 0 0 0 1 0 0 0
POINTS 1175
DATA ascii
979.76825 649.5838 289.71124 4278190080
147.20392 533.04956 383.41031 4278190080
448.19965 627.83008 931.10583 4278190080
153.91833 916.64484 234.78358 4278190080
339.28751 330.2551 489.20398 4278190080
867.62805 676.21661 246.28882 4278190080
916.68054 380.53296 520.10071 4278190080
867.83368 103.89928 351.4548 4278190080
916.02039 324.55429 432.36032 4278190080
473.84003 95.175888 537.30438 4278190080
225.84297 50.944134 162.8882 4278190080
515.5542 198.14806 695.93774 4278190080
898.96454 646.34772 299.76782 4278190080
806.07043 800.26605 192.41264 4278190080
16.853991 115.55354 522.66772 4278190080
506.05795 983.18158 174.88434 4278190080
752.3468 875.86212 555.4173 4278190080
248.44748 719.6958 659.31659 4278190080
599.90228 611.71619 983.87091 4278190080
8.2626247 61.556198 55.046768 4278190080
545.56702 287.39917 105.9909 4278190080
708.4552 802.95337 304.13895 4278190080
380.39294 677.91791 950.48663 4278190080
680.16077 459.98834 726.75269 4278190080
872.57343 476.84235 842.30621 4278190080
371.24115 982.90027 801.48779 4278190080
546.12549 711.24707 653.34991 4278190080
77.542793 959.69458 349.04565 4278190080
736.85938 535.59686 960.76184 4278190080
696.73029 543.8595 1022.3181 4278190080
751.77704 65.426483 285.71722 4278190080
857.76794 773.88171 64.670601 4278190080
137.90688 130.27464 742.58856 4278190080
64.393524 810.43542 178.57687 4278190080
791.14618 659.00885 655.41919 4278190080
609.45239 6.2499762 614.31952 4278190080
386.94022 552.37549 301.56659 4278190080
16.290096 629.91827 237.26115 4278190080
365.33575 342.77762 772.85803 4278190080
302.0976 15.507894 292.7175 4278190080
300.41565 767.28491 358.14398 4278190080
586.13287 601.05286 108.02567 4278190080
650.80347 738.95972 238.30031 4278190080
369.392 803.35327 24.735733 4278190080
547.96887 570.49945 683.74457 4278190080
179.38809 155.95187 689.99457 4278190080
793.70758 542.89209 218.37 4278190080
71.274185 559.18219 848.28827 4278190080
308.53534 924.51794 167.06589 4278190080
57.393356 202.61554 182.57378 4278190080
350.11084 503.03119 949.8587 4278190080
708.25482 65.164055 526.91156 4278190080
816.28052 715.96753 241.87129 4278190080
30.580803 61.359516 21.22456 4278190080
55.316536 609.32837 591.724 4278190080
739.0611 788.71649 747.6759 4278190080
405.05563 558.42407 266.56796 4278190080
623.42566 629.69824 825.75012 4278190080
447.7139 938.23358 726.26807 4278190080
614.77979 995.62695 928.88361 4278190080
797.35358 321.73779 407.91483 4278190080
723.21228 5.9926205 473.07886 4278190080
226.12383 822.27313 165.04639 4278190080
467.99512 852.85394 226.4059 4278190080
489.2197 908.17047 835.73431 4278190080
56.943707 623.23157 600.45074 4278190080
804.61957 4.2871995 134.87483 4278190080
47.187561 627.71283 764.57306 4278190080
872.93768 51.42675 678.8067 4278190080
575.20575 666.20654 650.43365 4278190080
480.08939 439.56012 972.17145 4278190080
888.00421 138.77238 978.16406 4278190080
337.08307 364.89621 776.43713 4278190080
502.12946 832.89136 605.29108 4278190080
728.53534 298.11102 489.46152 4278190080
540.26965 355.05475 88.693077 4278190080
116.72041 135.67433 92.98027 4278190080
251.59525 182.86189 720.69312 4278190080
1016.1683 31.799601 772.11987 4278190080
670.97504 607.00537 414.32642 4278190080
297.40866 63.094772 853.88654 4278190080
245.58008 951.099 992.65894 4278190080
199.74413 264.18207 333.55511 4278190080
976.18127 766.31152 142.44647 4278190080
557.47235 470.84686 440.5575 4278190080
22.933884 1011.1165 795.61224 4278190080
111.62696 103.83694 931.28656 4278190080
204.60724 355.43219 90.148476 4278190080
925.30035 347.60052 121.94808 4278190080
673.42023 1018.5756 728.95343 4278190080
63.746647 291.98419 792.04822 4278190080
917.63318 537.56427 719.14722 4278190080
886.29211 737.30841 983.32928 4278190080
195.84721 689.48969 725.64081 4278190080
338.2937 222.96204 172.48766 4278190080
778.8512 245.89592 159.60417 4278190080
550.46344 357.52289 263.4411 4278190080
457.75003 562.13013 618.87329 4278190080
547.8985 463.43048 966.47382 4278190080
669.84656 112.8507 961.04932 4278190080
374.80005 176.59735 229.03352 4278190080
142.84827 70.230522 766.59778 4278190080
861.99548 956.52258 479.90616 4278190080
821.32477 128.36983 145.39584 4278190080
522.96552 466.66351 368.35788 4278190080
695.45319 221.51471 614.25378 4278190080
855.05737 771.97815 971.77667 4278190080
94.498451 205.72818 509.9068 4278190080
713.3717 753.62671 973.33728 4278190080
655.84552 399.47327 62.187962 4278190080
592.8949 774.27332 238.78531 4278190080
821.92841 917.12158 309.01584 4278190080
564.52618 755.11707 241.53844 4278190080
20.432339 552.44183 369.90826 4278190080
165.82819 51.40736 836.57178 4278190080
534.18604 746.86053 34.086502 4278190080
124.43987 577.91791 806.06464 4278190080
72.216545 672.41632 1011.7928 4278190080
582.12335 361.78809 741.41956 4278190080
531.46063 1017.6336 116.8928 4278190080
593.64856 586.5285 891.16614 4278190080
832.4339 384.45688 784.28772 4278190080
117.44971 948.98303 515.40479 4278190080
358.98816 969.41541 43.846592 4278190080
728.89642 111.24357 95.253952 4278190080
541.4682 645.42963 842.1145 4278190080
575.55469 769.86951 396.03238 4278190080
357.61938 842.08606 44.448727 4278190080
345.41223 400.20938 406.23682 4278190080
62.831757 931.66998 399.87042 4278190080
179.72456 501.31857 986.39893 4278190080
46.890671 309.75244 346.85577 4278190080
831.17834 427.20215 271.83881 4278190080
322.58313 786.19031 217.2542 4278190080
366.42972 491.08673 328.49777 4278190080
461.68369 8.5549297 973.92743 4278190080
279.79816 584.10962 719.79688 4278190080
675.83057 941.729 537.88293 4278190080
720.2793 263.14124 938.09235 4278190080
102.51608 325.97299 845.76233 4278190080
502.38651 505.69757 323.08087 4278190080
464.7854 552.58826 632.83331 4278190080
811.64117 359.7666 36.035469 4278190080
59.48 682.34973 822.22577 4278190080
276.73419 24.779455 289.3125 4278190080
605.23199 486.46313 297.86743 4278190080
555.15936 766.26129 881.97705 4278190080
250.95627 418.09186 799.70605 4278190080
788.83923 114.37113 38.847324 4278190080
702.93152 216.88722 364.82031 4278190080
524.69385 719.27374 870.51788 4278190080
847.77478 160.05913 399.10611 4278190080
456.60806 971.70032 758.87268 4278190080
492.64355 7.1803079 417.22244 4278190080
290.86929 283.91452 442.00189 4278190080
580.18182 889.14648 928.46503 4278190080
878.04919 420.30585 670.72632 4278190080
736.02625 671.26215 64.818176 4278190080
511.73236 436.10135 179.18932 4278190080
550.57965 115.03289 396.07654 4278190080
915.40002 639.72675 91.35025 4278190080
761.91791 463.5015 251.40938 4278190080
137.024 920.10956 199.10968 4278190080
895.89673 388.75311 206.28999 4278190080
289.11914 679.62244 490.2045 4278190080
731.12103 235.80421 355.35098 4278190080
635.58606 89.853432 775.65686 4278190080
282.31238 825.8797 422.91898 4278190080
347.13055 313.61206 859.02032 4278190080
526.31989 864.19171 974.05322 4278190080
922.39642 755.59174 589.77997 4278190080
1013.7466 493.50961 29.281481 4278190080
241.15604 630.53363 949.39105 4278190080
440.26572 502.43033 314.14417 4278190080
646.55573 791.5495 993.7666 4278190080
112.76023 498.67053 205.57082 4278190080
468.11121 110.25658 295.42426 4278190080
219.76808 392.56897 97.303955 4278190080
642.68707 739.69952 410.91602 4278190080
477.7074 242.01941 251.10774 4278190080
427.76062 140.41583 1006.6995 4278190080
1017.5406 130.16249 476.20911 4278190080
22.822075 371.31854 82.742744 4278190080
972.21313 811.58423 585.1731 4278190080
262.3573 434.13998 352.72256 4278190080
232.1239 546.90021 851.39307 4278190080
437.69473 1015.0114 961.64966 4278190080
733.11896 210.77951 330.21863 4278190080
830.42291 853.46655 45.918171 4278190080
217.33894 307.17398 287.93759 4278190080
468.44669 734.93457 428.35342 4278190080
451.14618 728.47516 558.51593 4278190080
927.35529 751.29724 929.83441 4278190080
1010.098 699.51038 717.4187 4278190080
571.27112 961.86768 127.55867 4278190080
923.99365 169.99161 674.45886 4278190080
751.38672 607.68634 665.47034 4278190080
689.03644 316.80533 876.24982 4278190080
1019.2551 123.22825 705.71637 4278190080
41.173218 340.5672 1012.8904 4278190080
329.11081 809.01385 723.82495 4278190080
757.46423 236.16005 428.30011 4278190080
291.98013 139.51534 155.59738 4278190080
197.81456 125.61337 855.10779 4278190080
915.23328 696.88446 792.97546 4278190080
18.791927 596.87817 962.9671 4278190080
693.25079 324.26489 546.65338 4278190080
334.72113 1013.3013 863.45874 4278190080
186.97093 1008.5563 986.68695 4278190080
892.68732 25.729576 303.25415 4278190080
881.5777 354.84039 88.268036 4278190080
581.40259 88.304604 324.4281 4278190080
1009.7028 380.28473 463.94342 4278190080
141.30013 578.0993 589.55682 4278190080
996.4079 469.33255 262.44128 4278190080
765.38336 488.12448 859.31946 4278190080
704.3504 157.37527 159.58434 4278190080
227.00385 492.09641 148.88565 4278190080
66.462563 679.06732 133.442 4278190080
29.149536 547.75464 159.17159 4278190080
332.40369 405.33234 514.01196 4278190080
420.67172 986.73492 602.31659 4278190080
745.09985 972.43768 982.60132 4278190080
185.04326 89.737808 536.70056 4278190080
774.6001 62.145695 1006.0331 4278190080
13.041353 827.52905 470.15759 4278190080
872.36078 507.87949 627.5329 4278190080
7.945128 734.8833 95.629272 4278190080
156.83078 801.34589 774.69659 4278190080
290.2728 830.49542 298.45126 4278190080
449.44437 138.89911 703.78357 4278190080
963.45636 559.57086 666.51855 4278190080
541.77289 280.67068 614.95624 4278190080
500.37421 465.71393 704.69403 4278190080
13.074774 216.31401 766.83972 4278190080
1019.1079 229.35536 570.36877 4278190080
465.26547 77.716156 54.24826 4278190080
68.798355 85.661278 789.13159 4278190080
164.42763 242.49207 566.47748 4278190080
939.12421 532.76483 372.97287 4278190080
213.5755 982.20923 511.87198 4278190080
917.35907 921.66553 47.442833 4278190080
559.87762 439.43845 328.11353 4278190080
150.83386 939.81262 793.82745 4278190080
855.52789 952.88739 1010.1415 4278190080
598.36761 947.9953 215.49683 4278190080
144.7364 389.2608 293.21298 4278190080
198.98466 458.05914 378.87427 4278190080
988.11621 622.48676 621.36633 4278190080
530.59369 537.61102 130.13116 4278190080
903.56659 751.18652 88.34037 4278190080
391.43854 644.54559 1010.0059 4278190080
438.88138 180.42322 425.44437 4278190080
766.99487 331.25708 341.25702 4278190080
536.82233 162.78497 270.14444 4278190080
522.96381 761.15259 194.13974 4278190080
738.46063 905.88898 583.40051 4278190080
7.6736131 80.873657 17.459688 4278190080
386.54788 44.989899 639.94647 4278190080
1007.9142 575.58362 153.55748 4278190080
114.04535 455.15015 904.74402 4278190080
202.38571 846.58868 525.28961 4278190080
188.39163 261.47009 705.71283 4278190080
613.836 4.4649835 12.969894 4278190080
955.09302 541.28735 175.75487 4278190080
201.23744 40.251148 936.90747 4278190080
395.37717 778.71179 818.79645 4278190080
978.77771 786.38538 899.6701 4278190080
996.23743 148.93327 944.66003 4278190080
612.1839 132.84746 496.24359 4278190080
765.74133 246.89279 951.39374 4278190080
646.48535 449.2785 773.98248 4278190080
147.77495 637.67017 11.45255 4278190080
853.48773 227.50616 15.917534 4278190080
866.45764 158.59918 557.2049 4278190080
18.212517 359.83661 597.45599 4278190080
955.12 755.21381 352.16779 4278190080
749.91644 709.99152 114.55319 4278190080
625.58655 682.22888 263.48645 4278190080
546.24658 270.41278 396.33392 4278190080
18.490177 12.154137 643.22668 4278190080
969.88391 658.63947 68.505234 4278190080
719.86639 806.41443 706.17542 4278190080
731.31897 635.90216 933.68158 4278190080
747.23651 478.35983 68.280731 4278190080
280.44135 496.57236 428.11737 4278190080
877.89734 427.69232 159.33116 4278190080
206.06517 153.60876 869.32269 4278190080
320.61835 779.19531 527.55157 4278190080
584.1048 301.44189 797.96436 4278190080
980.43872 319.93207 810.11847 4278190080
599.66547 265.81601 444.758 4278190080
668.17065 985.68243 227.17241 4278190080
350.34607 693.00134 863.07458 4278190080
260.02762 416.23785 317.43445 4278190080
328.30835 696.6792 814.00677 4278190080
756.42572 550.57654 217.69913 4278190080
915.7569 756.64172 371.30789 4278190080
761.07953 53.260078 126.50322 4278190080
264.6311 637.36493 427.94513 4278190080
38.595474 593.80365 747.8772 4278190080
848.71399 169.46909 1013.6932 4278190080
269.47195 837.63977 975.37561 4278190080
496.64438 163.98584 644.37695 4278190080
335.71896 424.01346 36.614811 4278190080
653.15344 752.32184 733.29401 4278190080
443.16022 484.74756 259.87057 4278190080
660.85931 376.50443 1016.5123 4278190080
8.1672354 113.58395 45.772358 4278190080
134.67046 378.21506 683.13727 4278190080
562.6156 416.81055 252.94089 4278190080
286.49277 241.52451 422.40997 4278190080
276.18597 510.99646 236.04974 4278190080
227.56158 1007.6408 400.03558 4278190080
871.93854 319.3598 824.04907 4278190080
908.55334 972.51318 552.37091 4278190080
617.84735 391.67343 13.118444 4278190080
877.71796 28.532759 389.62286 4278190080
870.23022 36.699997 503.20682 4278190080
916.00256 171.37045 881.42188 4278190080
575.13983 733.98602 274.23245 4278190080
828.08075 1020.4788 515.75696 4278190080
226.49071 272.66476 2.7534146 4278190080
462.54044 500.22638 1010.3942 4278190080
862.57605 348.16492 305.75406 4278190080
662.62512 232.71829 254.26726 4278190080
190.996 850.56567 645.94067 4278190080
204.11444 704.28357 674.47345 4278190080
593.7373 550.51379 711.17346 4278190080
72.944138 442.51636 882.54388 4278190080
954.36603 1017.6562 592.52991 4278190080
204.59846 821.73694 589.00873 4278190080
720.35541 24.227623 861.67352 4278190080
723.10883 486.76807 337.89987 4278190080
709.50305 325.34412 686.06482 4278190080
1015.2571 987.96924 918.78308 4278190080
245.52438 154.96523 745.34875 4278190080
891.46509 359.07968 425.63232 4278190080
541.93854 952.81702 976.14612 4278190080
229.11195 1.7611241 394.66251 4278190080
87.655846 956.12714 388.3187 4278190080
680.18579 136.72562 186.05563 4278190080
245.1945 857.08105 210.28325 4278190080
82.868004 556.18988 697.05133 4278190080
420.76788 241.69296 1022.3954 4278190080
82.832672 232.95009 986.36469 4278190080
1001.6158 478.47449 117.3299 4278190080
722.96448 345.93954 476.40958 4278190080
124.59683 887.87805 405.22656 4278190080
76.742966 92.990013 406.98767 4278190080
471.40546 180.64586 339.11484 4278190080
859.72418 860.8316 475.84045 4278190080
21.779802 82.026123 308.92151 4278190080
232.06305 164.89413 865.11139 4278190080
929.11438 585.66199 82.804344 4278190080
927.50983 668.49469 315.75443 4278190080
889.87451 646.11047 794.22888 4278190080
1007.2044 345.07495 116.16845 4278190080
459.61395 469.67178 1004.0465 4278190080
864.84052 546.41473 73.03653 4278190080
247.8282 1017.8202 253.68239 4278190080
586.94305 853.54437 90.514008 4278190080
38.783508 875.32422 172.54013 4278190080
347.70502 83.387245 337.43427 4278190080
188.81639 1012.5016 923.09625 4278190080
271.62073 916.01147 567.59094 4278190080
587.37518 781.88593 189.70142 4278190080
357.60406 765.09033 534.77637 4278190080
473.77252 200.70428 1004.4481 4278190080
453.81903 41.544796 526.86285 4278190080
526.85553 289.37299 520.68311 4278190080
780.53796 876.31604 350.22748 4278190080
871.05194 915.09955 201.55168 4278190080
19.592087 238.80457 284.93893 4278190080
357.02637 427.62097 273.44055 4278190080
256.12265 699.2417 165.452 4278190080
823.71362 262.61685 947.33795 4278190080
1013.415 620.22095 688.42828 4278190080
524.19141 69.993454 889.13251 4278190080
504.63953 523.8125 930.67731 4278190080
7.5023985 26.668037 196.05034 4278190080
528.18549 807.20599 48.366379 4278190080
878.41296 654.25793 963.46594 4278190080
55.964672 673.85004 178.27049 4278190080
340.90359 6.8763723 605.89148 4278190080
614.34418 262.99902 281.13315 4278190080
779.79614 62.712612 543.75 4278190080
703.13409 52.127628 139.97096 4278190080
367.56238 576.31903 209.96442 4278190080
232.6949 56.958519 733.77692 4278190080
139.37224 64.460922 760.44495 4278190080
335.42258 592.64642 543.65088 4278190080
383.78894 447.05942 173.90884 4278190080
323.25488 503.02408 847.75885 4278190080
501.52539 843.92767 854.63525 4278190080
83.41684 434.27185 93.634232 4278190080
364.55002 190.06801 156.34685 4278190080
908.30005 893.20209 208.47447 4278190080
24.270996 236.76448 784.79346 4278190080
234.23541 469.45938 841.75201 4278190080
968.01233 608.8316 906.21289 4278190080
704.45721 944.25421 474.85934 4278190080
224.10814 304.04312 921.91876 4278190080
398.01697 627.29803 400.94281 4278190080
221.77583 104.82339 220.8705 4278190080
52.41106 188.24023 655.14233 4278190080
146.04529 552.79022 845.21039 4278190080
302.39215 437.09027 714.41248 4278190080
510.86661 461.36127 951.17694 4278190080
271.6601 695.59668 396.63635 4278190080
89.412102 639.60901 1005.468 4278190080
995.625 320.06622 925.72217 4278190080
446.48434 544.17438 205.76527 4278190080
344.40311 942.19135 833.06329 4278190080
745.34595 139.96719 937.88666 4278190080
966.21643 192.37825 102.12693 4278190080
597.35876 338.42355 654.91718 4278190080
418.56912 640.81567 68.007454 4278190080
108.98161 127.6823 529.36871 4278190080
36.158569 399.34241 200.96541 4278190080
432.79492 488.75449 840.5744 4278190080
414.26285 460.37952 136.64062 4278190080
315.98502 906.86389 680.815 4278190080
521.75031 227.26697 599.00635 4278190080
330.81357 972.61292 738.97357 4278190080
244.70026 914.82928 931.35181 4278190080
346.82718 488.18808 245.77533 4278190080
1001.7444 906.7572 886.591 4278190080
45.751808 1015.7388 1014.2733 4278190080
575.12054 27.897394 389.61572 4278190080
776.08594 460.69229 878.37024 4278190080
592.66034 874.95514 314.74976 4278190080
729.30096 166.94017 197.61362 4278190080
386.116 688.69043 424.88058 4278190080
985.12238 1019.504 373.49347 4278190080
700.09589 240.20427 264.32278 4278190080
607.44769 587.03143 752.51086 4278190080
853.22302 564.77582 635.26807 4278190080
715.81403 610.52765 627.0069 4278190080
706.08734 161.64816 654.9043 4278190080
71.703087 937.73413 91.596588 4278190080
950.0733 506.39447 966.55176 4278190080
240.82306 211.69547 109.49193 4278190080
438.43668 597.81146 798.18237 4278190080
863.31726 558.93378 793.6864 4278190080
212.81071 235.02969 9.8906622 4278190080
477.13348 842.47736 596.92212 4278190080
205.64435 671.70038 137.69794 4278190080
840.91241 363.51443 748.22559 4278190080
443.91931 45.601814 909.87372 4278190080
74.823608 117.3049 823.60785 4278190080
166.4202 43.378212 306.00229 4278190080
108.97195 284.20126 517.69775 4278190080
218.46388 722.63794 91.509209 4278190080
1016.6462 561.9552 650.44299 4278190080
786.33264 774.76593 885.47272 4278190080
796.22333 227.8994 703.95007 4278190080
369.14542 433.54373 351.65051 4278190080
506.84335 250.45616 715.16498 4278190080
231.06891 694.37549 760.76678 4278190080
116.94263 769.1991 878.07166 4278190080
940.55048 935.61926 921.44989 4278190080
222.55276 20.591236 181.65115 4278190080
740.25049 239.05511 904.28906 4278190080
831.7597 231.70137 442.24426 4278190080
458.20273 1018.034 193.01016 4278190080
319.67545 790.25732 420.90958 4278190080
1023.6255 135.40274 854.45331 4278190080
351.27606 642.24609 80.90947 4278190080
42.441002 873.315 775.28497 4278190080
803.20776 990.25763 520.48401 4278190080
657.27942 906.80811 432.1033 4278190080
554.72931 105.36087 452.69455 4278190080
736.38049 845.61139 691.74969 4278190080
616.66956 653.37109 923.45105 4278190080
34.913834 87.573845 917.48505 4278190080
227.92401 407.2493 683.74237 4278190080
648.83356 406.87485 819.14508 4278190080
479.28687 758.15088 437.39117 4278190080
560.19635 800.59192 286.70621 4278190080
311.48129 579.79968 252.96384 4278190080
831.96533 213.0791 135.77194 4278190080
240.06863 767.80841 241.13281 4278190080
692.76318 480.1889 62.744198 4278190080
360.51288 72.858475 716.1153 4278190080
259.9639 107.77231 803.68915 4278190080
153.44894 335.69632 186.93845 4278190080
837.19128 984.52991 593.81329 4278190080
632.33643 439.81677 327.96417 4278190080
45.727592 1000.0131 104.55606 4278190080
332.43378 287.49438 684.35571 4278190080
585.39764 95.459717 897.43481 4278190080
721.16956 335.52835 641.24329 4278190080
962.30237 4.2915564 97.432175 4278190080
1.0465875 364.80441 170.29065 4278190080
717.16193 624.76831 278.06296 4278190080
496.85104 778.21729 613.75928 4278190080
683.78949 591.40857 574.28918 4278190080
253.60278 199.745 1014.1059 4278190080
581.56696 245.47258 990.11902 4278190080
686.12305 577.90637 253.61342 4278190080
346.47876 139.304 349.07315 4278190080
219.91357 860.47357 684.6015 4278190080
861.15686 798.77594 688.89307 4278190080
958.58899 799.82257 29.697479 4278190080
104.87967 492.98444 654.46582 4278190080
382.94263 989.83551 408.68307 4278190080
996.7019 649.625 1000.0917 4278190080
546.99109 903.22778 175.83665 4278190080
537.09698 460.79474 421.30923 4278190080
503.216 122.91777 999.21558 4278190080
756.82941 469.39651 114.51961 4278190080
81.902573 689.31012 974.99316 4278190080
766.50409 526.46692 749.76917 4278190080
431.39713 461.05597 525.59167 4278190080
461.0946 565.93561 1018.5761 4278190080
91.56041 948.87823 984.41162 4278190080
500.2435 921.5802 610.03662 4278190080
476.33514 444.57126 489.2644 4278190080
652.17181 981.66821 950.05914 4278190080
49.481045 460.88425 48.97694 4278190080
24.69665 193.71368 518.37347 4278190080
139.21625 275.61627 183.68356 4278190080
90.209435 18.120331 710.15051 4278190080
839.97858 449.51746 147.20648 4278190080
341.57025 910.61206 713.14209 4278190080
336.14639 1002.1725 638.02039 4278190080
296.55804 478.41599 535.60052 4278190080
906.59467 954.75116 980.17181 4278190080
371.85907 582.92291 937.84003 4278190080
297.91824 632.40399 374.72427 4278190080
346.8952 657.10065 568.43799 4278190080
865.26868 796.31689 844.0542 4278190080
24.952221 886.52631 862.17456 4278190080
735.10272 702.50488 287.69202 4278190080
882.3092 20.075153 174.30409 4278190080
571.45135 356.22156 152.47658 4278190080
185.47173 652.7796 630.89258 4278190080
721.07227 535.37427 561.64368 4278190080
677.24408 907.23334 120.56663 4278190080
591.08411 181.15158 752.97058 4278190080
965.80841 528.04675 386.07123 4278190080
510.24637 369.31543 158.38814 4278190080
330.30057 394.26764 20.91445 4278190080
168.47514 105.37038 723.41931 4278190080
456.16714 987.67963 743.49451 4278190080
630.47125 535.13092 75.716049 4278190080
782.94781 720.60266 728.49561 4278190080
389.84036 417.67493 239.86989 4278190080
951.48407 70.919006 123.10323 4278190080
48.05069 662.00311 304.25482 4278190080
801.0213 603.81146 832.30157 4278190080
163.09254 90.057846 177.617 4278190080
321.48068 420.35843 571.88464 4278190080
342.39511 588.83356 677.255 4278190080
41.814465 21.000717 640.93463 4278190080
785.30896 651.47198 152.06558 4278190080
861.02502 410.4198 872.66827 4278190080
565.52063 800.26019 266.34317 4278190080
805.3905 727.7442 337.26218 4278190080
928.49377 775.79492 999.26532 4278190080
208.74857 552.81622 579.07678 4278190080
17.050144 715.90875 669.13464 4278190080
194.66714 13.389428 65.49305 4278190080
766.55182 355.78455 654.3266 4278190080
419.80682 397.59903 675.32733 4278190080
36.741478 158.90797 302.79929 4278190080
188.80707 1019.933 713.21906 4278190080
37.475311 561.45361 489.47925 4278190080
303.81848 342.84418 193.22348 4278190080
641.08069 247.33792 969.01837 4278190080
616.34601 456.08649 497.83459 4278190080
171.42276 473.13663 189.74336 4278190080
840.55737 667.80377 203.13278 4278190080
906.05042 410.35559 558.91736 4278190080
536.37708 830.16241 956.51636 4278190080
187.70439 866.90387 91.424332 4278190080
490.50369 31.71096 87.357323 4278190080
179.72276 69.186272 648.81097 4278190080
669.20203 373.00476 991.65509 4278190080
862.42548 1014.0854 214.99304 4278190080
807.44385 606.43146 671.07953 4278190080
281.27847 777.85419 120.21616 4278190080
471.02182 594.41156 788.01996 4278190080
674.1546 476.46204 174.37552 4278190080
209.07196 1012.8391 1004.5379 4278190080
141.58832 176.54347 847.44183 4278190080
233.01265 667.04718 879.15277 4278190080
320.36996 846.7699 948.33905 4278190080
969.18091 491.97192 297.34384 4278190080
936.83606 330.3974 287.42929 4278190080
127.82908 113.84128 893.86072 4278190080
798.90863 395.11975 647.7149 4278190080
919.12476 866.1416 218.1265 4278190080
683.14471 516.2962 694.5885 4278190080
857.5202 725.36816 683.42761 4278190080
838.05817 866.95648 859.97107 4278190080
661.49994 75.969139 503.01825 4278190080
516.65277 396.33911 325.78818 4278190080
440.99182 341.52002 817.76007 4278190080
738.33563 254.35608 124.1575 4278190080
1.7649312 382.18515 237.99878 4278190080
895.62567 157.09377 633.11853 4278190080
519.34058 52.218517 475.2601 4278190080
737.46704 735.36322 991.55634 4278190080
408.05557 568.88342 692.9245 4278190080
67.483192 382.94156 535.88098 4278190080
927.45428 20.441513 611.8501 4278190080
406.47253 537.0943 1008.1892 4278190080
732.26068 978.08606 325.70926 4278190080
526.02081 692.42175 580.06537 4278190080
650.17828 694.18665 962.25049 4278190080
888.17706 565.81232 95.344254 4278190080
497.29559 61.152866 147.56277 4278190080
972.55573 798.61993 882.92596 4278190080
940.11206 182.67549 427.80939 4278190080
609.03656 250.15868 810.75092 4278190080
120.91751 153.61296 831.19244 4278190080
732.76764 560.08551 344.28671 4278190080
716.95685 268.34619 298.3728 4278190080
18.666128 794.367 990.79456 4278190080
598.73145 420.54529 660.9812 4278190080
536.98193 284.72238 202.79352 4278190080
632.32623 782.01801 263.94638 4278190080
779.88898 730.57367 38.566303 4278190080
638.81494 646.68573 221.24179 4278190080
42.624352 231.72226 471.40048 4278190080
853.37531 352.63977 625.01343 4278190080
660.56775 61.40741 161.09894 4278190080
1004.8544 778.36426 429.44513 4278190080
279.22726 797.0304 199.81213 4278190080
246.0218 371.76187 620.35742 4278190080
907.00299 908.74384 905.07977 4278190080
85.796524 517.07007 663.09778 4278190080
349.74292 272.95905 369.67148 4278190080
388.3092 911.77399 1016.3572 4278190080
609.55103 954.39838 224.07948 4278190080
56.951492 783.77362 576.71924 4278190080
681.96497 420.34137 638.12665 4278190080
843.0639 401.19583 392.49094 4278190080
248.50902 680.4231 165.52133 4278190080
448.32114 926.44489 537.2832 4278190080
44.678577 809.44788 422.02704 4278190080
949.75836 895.24438 939.09711 4278190080
588.85614 220.98734 188.05612 4278190080
958.52765 609.29657 75.830132 4278190080
950.88483 194.84756 6.2284856 4278190080
150.96432 251.79906 790.00214 4278190080
727.68359 933.76398 186.34349 4278190080
341.81024 752.82788 587.53931 4278190080
734.30121 1001.3369 243.9624 4278190080
899.82251 425.65802 146.40727 4278190080
413.10571 470.33661 955.85516 4278190080
835.13275 396.09497 827.09955 4278190080
750.22986 984.95117 24.086903 4278190080
938.28595 919.47876 633.38342 4278190080
1014.1161 846.36365 828.23102 4278190080
1020.3446 997.32794 56.03006 4278190080
786.34674 701.01154 989.79407 4278190080
972.69019 18.821777 718.62189 4278190080
536.22955 753.12299 695.9588 4278190080
780.19196 628.9455 97.616821 4278190080
926.59918 18.051195 567.95343 4278190080
858.45435 853.18396 964.0484 4278190080
661.55396 579.41382 924.99957 4278190080
685.64081 493.69977 820.47833 4278190080
295.02429 483.81589 642.84198 4278190080
99.255295 480.16049 616.16992 4278190080
155.28535 242.50722 293.18143 4278190080
121.07941 191.19742 312.0032 4278190080
839.70129 727.42694 41.126167 4278190080
511.66013 483.6189 670.07166 4278190080
609.27692 386.21808 688.12286 4278190080
153.23036 220.67244 517.30676 4278190080
93.27877 882.22638 72.720596 4278190080
1018.2783 543.86719 566.42041 4278190080
814.75665 838.89148 26.236275 4278190080
433.5986 938.14679 506.39676 4278190080
25.768511 69.432152 748.90399 4278190080
318.94995 190.51155 940.10138 4278190080
630.95319 6.2128735 643.52838 4278190080
672.07935 517.87299 103.14724 4278190080
318.15097 103.14992 489.36533 4278190080
1006.2738 256.38028 710.03778 4278190080
499.5806 349.65906 568.26416 4278190080
572.30121 343.93738 88.131363 4278190080
114.72158 134.69403 927.02289 4278190080
140.95786 568.2926 841.16968 4278190080
647.35461 594.06116 910.60181 4278190080
372.25861 913.01111 77.113365 4278190080
288.35999 519.96423 83.326241 4278190080
931.88837 168.04358 601.19922 4278190080
11.035601 486.19455 704.34912 4278190080
500.40091 468.46835 960.72943 4278190080
186.43869 968.04895 286.38849 4278190080
754.70282 516.35016 630.32587 4278190080
842.83423 631.07172 765.0199 4278190080
745.85706 772.0296 309.3125 4278190080
563.02673 395.38422 903.37366 4278190080
449.62854 767.64282 792.3847 4278190080
526.74188 32.002808 288.34897 4278190080
610.06812 963.89117 456.39255 4278190080
187.26736 974.92676 942.5871 4278190080
891.61652 451.3277 387.05545 4278190080
828.34595 637.76636 331.10443 4278190080
90.734413 368.46921 847.45459 4278190080
721.06024 187.30342 454.52631 4278190080
462.08014 933.16046 202.55591 4278190080
771.39264 472.18723 597.94012 4278190080
650.7663 921.81573 341.58292 4278190080
419.151 424.55765 373.58572 4278190080
707.5 10.625797 313.4769 4278190080
139.89253 197.89316 264.40366 4278190080
58.479633 65.509682 715.73138 4278190080
445.5351 893.85559 329.49774 4278190080
776.63953 984.59003 697.96698 4278190080
600.09412 681.65027 885.27039 4278190080
30.620407 119.73043 794.43085 4278190080
233.17632 891.12305 242.61807 4278190080
831.11646 517.88934 140.43382 4278190080
148.69936 937.04034 564.99146 4278190080
522.2851 620.54034 575.61731 4278190080
835.76196 760.43286 773.51044 4278190080
76.165649 818.91248 839.02014 4278190080
791.89697 240.44759 708.87573 4278190080
97.394737 1017.0871 669.46576 4278190080
795.36169 593.18121 327.11606 4278190080
656.63208 623.80157 446.8465 4278190080
427.06293 856.97791 313.96957 4278190080
669.68103 664.09436 831.85889 4278190080
810.11481 812.7937 744.89923 4278190080
351.10632 311.0788 341.43958 4278190080
926.72357 122.84077 77.872421 4278190080
676.23401 199.00641 896.78491 4278190080
491.25415 990.90344 113.23248 4278190080
176.1299 64.298157 106.31958 4278190080
845.5957 859.65985 699.50073 4278190080
148.71175 492.29193 299.30237 4278190080
595.55823 919.35486 132.28026 4278190080
909.52783 565.03583 796.37463 4278190080
717.38672 351.1507 585.16827 4278190080
438.28598 702.25702 896.24707 4278190080
779.72552 604.98059 1019.0878 4278190080
857.59796 257.21463 194.09427 4278190080
730.38287 748.46881 160.9977 4278190080
843.61536 924.59869 225.29585 4278190080
949.93494 746.1944 60.955696 4278190080
625.43567 894.90613 553.24762 4278190080
924.73804 466.46439 448.60248 4278190080
33.018303 351.99219 1013.6383 4278190080
829.39288 45.378914 340.789 4278190080
390.56122 483.66489 19.045994 4278190080
262.80829 239.39041 624.02661 4278190080
257.89615 72.988365 881.24121 4278190080
451.99042 803.37122 605.71002 4278190080
612.9881 622.98657 506.30869 4278190080
838.28394 548.92151 228.50305 4278190080
899.23962 150.35718 99.409172 4278190080
428.48727 51.095215 565.87354 4278190080
877.08972 84.113518 917.86572 4278190080
866.72803 913.50641 963.24463 4278190080
183.51706 280.06763 422.90952 4278190080
202.56305 542.87592 662.29993 4278190080
826.5896 800.77209 735.28827 4278190080
683.83081 228.7625 514.65955 4278190080
265.54083 841.75061 113.64608 4278190080
771.84955 656.03455 662.56757 4278190080
1000.3526 531.27423 812.92474 4278190080
75.761749 959.76147 864.01996 4278190080
641.63531 812.8512 948.13348 4278190080
535.50104 655.57928 837.63989 4278190080
474.74567 839.09631 93.707527 4278190080
897.65521 17.659378 636.58344 4278190080
535.95514 844.24902 413.35553 4278190080
247.24344 504.07983 642.11804 4278190080
761.90295 769.62067 459.86865 4278190080
875.54901 517.47021 91.903198 4278190080
514.11658 493.82278 623.17743 4278190080
303.04132 569.58453 558.9389 4278190080
143.06129 187.21982 347.79013 4278190080
67.194756 722.72083 1003.3694 4278190080
904.83466 173.46651 818.46576 4278190080
998.54218 47.121708 836.12512 4278190080
611.12561 583.07684 656.37415 4278190080
0.48117685 830.32025 136.45398 4278190080
642.59918 568.22321 906.07465 4278190080
78.46785 419.77225 399.54486 4278190080
170.37105 933.88885 893.36761 4278190080
793.54846 212.93019 438.95218 4278190080
328.48737 355.99149 626.172 4278190080
676.27753 423.18622 324.89282 4278190080
655.64691 304.02087 498.35934 4278190080
450.11264 278.56308 545.48102 4278190080
262.23776 889.68872 104.55788 4278190080
918.61188 890.16986 934.87817 4278190080
31.065876 508.7691 479.10138 4278190080
937.14056 587.23694 898.87366 4278190080
312.68539 757.60797 808.76251 4278190080
182.05304 527.15649 1021.6927 4278190080
621.00519 855.64386 353.68414 4278190080
223.1772 507.92136 776.87036 4278190080
548.07001 139.56825 56.891258 4278190080
22.429363 589.68091 335.45432 4278190080
567.9104 851.9187 201.14304 4278190080
672.46826 746.53058 67.31292 4278190080
583.34644 777.59644 576.08203 4278190080
38.447826 690.737 139.31895 4278190080
937.32147 1003.4224 896.92694 4278190080
722.08392 161.47543 400.08344 4278190080
719.77661 782.48065 231.72726 4278190080
49.460751 1005.6578 739.64862 4278190080
826.33112 529.72791 879.21686 4278190080
883.22241 552.15723 444.89777 4278190080
194.67671 96.06765 272.81644 4278190080
395.81973 768.53595 1019.347 4278190080
463.13266 327.88239 772.94348 4278190080
15.214685 366.3302 439.68048 4278190080
154.53365 279.65167 419.10287 4278190080
27.460604 1001.7356 580.57831 4278190080
427.54404 697.51221 339.05896 4278190080
659.2713 746.97296 320.7168 4278190080
374.91989 549.30408 850.4447 4278190080
230.13675 408.52649 378.60193 4278190080
675.03448 603.20319 474.66959 4278190080
947.85095 999.02295 219.20552 4278190080
943.198 438.15561 547.08789 4278190080
692.14148 453.3703 913.41809 4278190080
107.82192 607.90393 169.06979 4278190080
526.9248 635.36456 146.8054 4278190080
83.503082 38.908569 844.31763 4278190080
422.56204 698.17987 567.29059 4278190080
743.27881 49.099739 92.594696 4278190080
569.72351 279.23648 501.12119 4278190080
948.32544 954.271 80.324371 4278190080
398.99503 878.12195 55.347313 4278190080
618.20056 797.31995 493.50293 4278190080
141.28845 465.46136 946.87323 4278190080
30.706573 573.28326 530.77716 4278190080
199.77637 76.208076 142.14169 4278190080
346.58176 159.71115 181.05026 4278190080
166.8994 582.27319 879.2301 4278190080
734.19 301.55203 928.32983 4278190080
826.78467 871.27551 183.56633 4278190080
303.90588 795.60101 113.83733 4278190080
384.23026 170.59602 991.95929 4278190080
439.57758 788.79657 765.27917 4278190080
933.08051 930.08502 206.74055 4278190080
855.95367 960.79156 780.02386 4278190080
362.73087 136.56796 856.23193 4278190080
504.87256 483.14972 1015.9431 4278190080
685.92279 650.04913 574.21625 4278190080
541.15295 360.23914 875.76831 4278190080
445.48279 163.02382 723.04382 4278190080
629.04913 466.92969 494.64484 4278190080
742.88647 851.15997 665.24084 4278190080
710.8457 266.73752 430.03741 4278190080
452.12491 175.81801 336.12244 4278190080
658.86548 7.7717099 272.91403 4278190080
414.88931 370.50256 409.48199 4278190080
247.12125 875.37512 892.63171 4278190080
239.06433 537.29797 518.68085 4278190080
813.28058 54.450882 878.91998 4278190080
665.04889 499.93369 17.943783 4278190080
364.09271 104.98281 484.87347 4278190080
858.73755 847.86926 312.03342 4278190080
499.97839 534.71497 578.77094 4278190080
930.01581 986.8399 754.58893 4278190080
242.13823 621.70538 762.36066 4278190080
515.05225 12.594688 108.86323 4278190080
924.53424 259.71594 984.23834 4278190080
793.16595 498.78024 497.53629 4278190080
287.8468 288.06085 551.98718 4278190080
142.76675 953.10974 27.920858 4278190080
160.71054 293.20245 132.90367 4278190080
645.58405 127.93999 980.77295 4278190080
957.61743 627.9184 491.48792 4278190080
512.38843 533.9342 454.32782 4278190080
242.97736 776.07239 52.033195 4278190080
1005.338 267.12466 64.627884 4278190080
90.201241 167.65889 324.34381 4278190080
50.43959 960.82483 823.12408 4278190080
547.97589 224.67165 87.184921 4278190080
75.963074 367.43842 16.294655 4278190080
103.88393 528.14893 309.4971 4278190080
236.7876 149.73297 437.4371 4278190080
193.56053 83.350426 41.355469 4278190080
685.04846 595.73883 575.28967 4278190080
115.37628 838.71619 327.36206 4278190080
167.40947 820.0542 594.48669 4278190080
232.03735 910.25543 762.14563 4278190080
556.38116 960.69501 698.97046 4278190080
355.50525 484.6709 923.64209 4278190080
442.69019 560.63397 267.08051 4278190080
458.98483 664.51788 795.22943 4278190080
768.48193 901.30548 944.9624 4278190080
181.91902 70.866035 4.3128543 4278190080
223.27449 755.91449 600.0517 4278190080
798.56415 871.29077 414.76785 4278190080
101.92619 14.700239 210.82204 4278190080
696.4129 246.73759 97.077454 4278190080
434.5585 803.11877 33.772465 4278190080
109.52896 134.62402 518.44336 4278190080
9.1710644 577.31421 55.077343 4278190080
276.25156 12.29903 719.59528 4278190080
47.481026 780.78094 596.90076 4278190080
992.44348 962.70001 667.76678 4278190080
996.75629 161.97449 399.68127 4278190080
572.80798 960.53864 246.97205 4278190080
987.57587 38.464821 261.67227 4278190080
174.39787 734.87775 508.40988 4278190080
271.47531 145.43623 287.52866 4278190080
305.24777 254.96519 422.15268 4278190080
823.69116 264.13626 999.46686 4278190080
878.76849 540.38782 1011.7659 4278190080
574.36377 587.86884 768.54688 4278190080
147.26451 556.31232 707.24689 4278190080
815.03131 529.0686 869.22137 4278190080
190.71257 77.87661 805.75995 4278190080
437.68463 41.452446 844.22479 4278190080
699.35687 215.85031 555.10254 4278190080
183.76678 487.32562 700.53876 4278190080
471.29544 792.57343 955.50391 4278190080
893.44812 592.26459 195.64018 4278190080
868.91498 447.03308 736.02802 4278190080
856.68091 1021.3968 299.89685 4278190080
601.22778 144.66132 856.20917 4278190080
284.47467 959.69263 361.2778 4278190080
129.69601 126.40519 439.15439 4278190080
935.45599 564.08978 480.60684 4278190080
755.68079 239.4467 696.45715 4278190080
286.78329 423.21347 159.78279 4278190080
987.32208 894.50891 952.3562 4278190080
918.82599 763.95703 520.62079 4278190080
90.466171 608.87207 967.65381 4278190080
826.4942 441.55298 965.05066 4278190080
102.39105 18.780769 85.711975 4278190080
958.60022 303.25543 21.404587 4278190080
295.87802 432.95145 147.80978 4278190080
735.03241 344.40744 711.8996 4278190080
191.63925 76.088242 951.34631 4278190080
888.09637 362.87155 350.55975 4278190080
23.879185 326.1936 221.0687 4278190080
976.23541 221.01959 985.02576 4278190080
472.85617 311.48578 569.89777 4278190080
416.51001 113.97995 1011.4507 4278190080
357.56067 216.371 6.2315106 4278190080
443.27261 150.97122 309.48694 4278190080
464.67722 446.84924 742.43842 4278190080
612.487 157.88164 62.845848 4278190080
300.38657 349.52087 138.93408 4278190080
227.73286 213.61728 501.80563 4278190080
578.2926 237.49646 827.99927 4278190080
799.36133 189.73184 25.018833 4278190080
760.38702 662.58801 336.50461 4278190080
306.28482 55.098011 450.48456 4278190080
293.73557 412.65866 666.85553 4278190080
299.96707 855.93127 817.82678 4278190080
609.45404 296.60852 240.67601 4278190080
327.89243 909.09552 398.55765 4278190080
390.73825 185.48207 748.07849 4278190080
529.67236 413.21494 961.6958 4278190080
7.4779897 991.50757 175.19226 4278190080
835.47723 766.8689 364.9241 4278190080
860.49609 503.25592 3.512115 4278190080
173.00066 809.54071 58.610126 4278190080
623.48523 79.276283 471.2688 4278190080
266.34076 379.24335 303.20007 4278190080
60.167538 988.69739 599.80859 4278190080
300.84354 292.58978 484.90408 4278190080
699.40118 683.32806 670.38617 4278190080
423.47971 189.0004 59.601089 4278190080
361.17548 196.47839 27.108644 4278190080
536.36774 7.9556179 793.97754 4278190080
901.29187 868.45166 273.23343 4278190080
904.80396 17.452343 58.774151 4278190080
963.41406 640.93756 138.05043 4278190080
410.68289 907.27832 517.29376 4278190080
713.88293 967.44586 481.99115 4278190080
289.69156 244.2894 774.58093 4278190080
774.59564 943.69055 433.909 4278190080
420.98181 343.17029 622.90936 4278190080
480.58289 704.34576 819.38776 4278190080
507.69153 216.71352 827.34338 4278190080
277.66904 94.005363 671.79504 4278190080
550.90247 998.80933 689.24744 4278190080
609.67664 938.22345 306.18497 4278190080
747.72705 324.90631 189.46329 4278190080
241.02084 14.78927 132.90915 4278190080
723.01202 304.48083 377.19855 4278190080
473.59293 55.076466 296.88913 4278190080
907.50189 476.05826 640.05939 4278190080
506.41129 956.64117 320.40515 4278190080
301.79907 440.3327 537.11865 4278190080
105.14245 718.00171 631.12402 4278190080
776.9375 244.90421 605.93335 4278190080
442.18494 854.58081 520.1568 4278190080
748.36987 578.30786 845.06311 4278190080
937.83319 819.32874 859.85236 4278190080
46.742329 518.3407 140.33319 4278190080
423.94089 991.93365 195.40965 4278190080
720.83002 875.43561 671.4679 4278190080
336.8894 357.84689 604.10907 4278190080
657.29456 659.64594 20.441765 4278190080
170.41322 764.78839 738.44348 4278190080
801.53723 517.72595 983.34772 4278190080
383.47061 959.91083 813.92853 4278190080
903.62738 684.28076 368.23642 4278190080
724.69049 598.11395 163.56516 4278190080
560.54285 644.85626 681.90588 4278190080
700.87604 44.797134 649.83954 4278190080
896.28571 765.62714 501.27512 4278190080
543.7536 78.516518 859.12201 4278190080
123.8627 735.8111 494.76797 4278190080
144.30447 906.2243 235.55638 4278190080
882.74799 683.76154 753.28229 4278190080
842.0957 43.232155 689.19318 4278190080
632.02423 946.85956 349.47391 4278190080
1000.2606 647.55005 947.58783 4278190080
139.82579 184.09293 568.44409 4278190080
821.73169 884.96899 613.24121 4278190080
447.5712 757.2547 354.86835 4278190080
948.84631 277.0083 433.38489 4278190080
783.96832 400.871 145.19594 4278190080
254.73633 545.17548 27.420225 4278190080
490.29269 403.92343 711.18176 4278190080
219.575 222.01912 754.41394 4278190080
908.76813 854.04333 677.2735 4278190080
234.24205 830.30396 300.82355 4278190080
157.82988 970.12976 484.91647 4278190080
726.27399 767.86139 345.88544 4278190080
315.5152 191.43262 79.140106 4278190080
670.38354 116.27895 356.14841 4278190080
79.768425 900.24731 757.01941 4278190080
224.96436 130.98363 278.19489 4278190080
252.38458 621.27631 682.11829 4278190080
963.56635 840.85132 904.13739 4278190080
693.98029 725.61945 734.18073 4278190080
347.25375 959.86151 540.48468 4278190080
648.07727 93.691406 486.61444 4278190080
108.99376 819.96539 230.47586 4278190080
454.87918 111.48058 421.90848 4278190080
534.01929 781.86414 538.18744 4278190080
890.16772 861.63257 414.43472 4278190080
623.18713 62.596912 545.41833 4278190080
901.38196 314.98151 142.69466 4278190080
559.50031 254.54785 983.54596 4278190080
439.63773 948.52814 685.16547 4278190080
149.81845 271.78189 621.02698 4278190080
690.30316 919.85919 714.71838 4278190080
152.91762 4.8529434 510.68378 4278190080
383.39346 459.73215 622.16437 4278190080
805.30194 993.7514 380.02847 4278190080
319.48935 859.91913 217.66101 4278190080
733.92407 459.10626 280.25793 4278190080
255.34241 336.48822 595.23944 4278190080
398.03708 895.98853 849.78729 4278190080
357.58307 311.62622 774.31543 4278190080
18.748516 461.4447 22.0973 4278190080
639.77551 127.74786 941.95648 4278190080
330.4939 280.66547 946.80945 4278190080
841.17767 664.05896 382.54156 4278190080
439.34201 445.36087 352.293 4278190080
819.37048 764.85022 188.21213 4278190080
13.0315 474.77429 647.31836 4278190080
293.28943 730.1167 983.80664 4278190080
888.52887 104.15378 855.7951 4278190080
714.31616 461.73685 143.42137 4278190080
464.63156 480.48535 604.86603 4278190080
486.72885 96.260849 732.61389 4278190080
404.68533 426.75476 1013.2794 4278190080
327.49478 243.93242 653.33832 4278190080
710.03632 683.27441 74.699203 4278190080
38.329323 478.6449 839.54944 4278190080
226.54146 491.67639 290.32373 4278190080
873.85986 784.96582 1020.4404 4278190080
833.66644 649.49469 100.59423 4278190080
665.46155 339.81085 562.33105 4278190080
808.88293 804.44238 18.816412 4278190080
389.74899 267.17126 115.07726 4278190080
98.362915 671.85657 541.83203 4278190080
87.642296 999.35138 785.7644 4278190080
740.98059 685.3877 445.03885 4278190080
815.67981 723.71704 923.68378 4278190080
631.22925 950.25848 391.36017 4278190080
921.55298 800.11829 152.32599 4278190080
917.99347 609.78473 801.82068 4278190080
1018.5876 251.24632 117.63152 4278190080
556.91876 36.129269 922.07391 4278190080
575.73517 425.87827 165.24516 4278190080
690.81244 524.24121 837.10175 4278190080
208.64442 611.88348 812.45312 4278190080
994.40887 328.86411 473.84082 4278190080
415.44769 120.54391 173.55782 4278190080
315.13147 751.77319 99.816284 4278190080
706.49164 649.32617 899.93457 4278190080
858.81763 543.31964 485.71933 4278190080
636.63831 537.90729 736.96564 4278190080
754.26984 70.826027 773.09491 4278190080
652.34375 646.56116 174.97321 4278190080
817.58893 313.3736 699.21442 4278190080
630.69067 522.01801 287.09787 4278190080
419.1438 492.42688 615.96198 4278190080
892.98462 907.87457 736.50592 4278190080
42.542419 199.00603 464.27905 4278190080
142.3587 905.49762 89.605232 4278190080
18.293297 740.31525 632.92487 4278190080
504.01263 352.95355 146.83212 4278190080
216.9783 83.223373 217.65816 4278190080
990.07324 735.56714 864.2193 4278190080
141.04645 529.15601 153.59291 4278190080
840.2608 135.84669 675.6109 4278190080
103.35871 554.99048 144.0378 4278190080
719.32068 423.9751 27.912369 4278190080
431.82657 466.51752 226.9184 4278190080
896.10565 608.87622 108.41605 4278190080
985.71088 627.16949 848.73132 4278190080
594.63568 107.18214 177.68486 4278190080
741.46783 324.16046 260.90823 4278190080
959.12598 290.23367 996.47534 4278190080
799.34534 431.28012 501.63138 4278190080
952.93823 247.54095 637.47809 4278190080
604.54913 350.89966 168.46857 4278190080
748.58698 46.220345 592.44366 4278190080
776.49933 478.04691 34.961166 4278190080
1003.4177 350.15256 643.8374 4278190080
87.833763 311.8634 247.0069 4278190080
936.56506 906.49915 354.18903 4278190080
90.249924 623.96698 678.34949 4278190080
351.15814 559.09296 968.58319 4278190080
323.63351 334.43826 375.86328 4278190080
825.26489 263.37646 623.40424 4278190080
438.74298 867.92566 974.30389 4278190080
607.21155 592.51257 1020.5242 4278190080
175.6552 345.0119 474.57117 4278190080
210.61636 324.42963 824.72375 4278190080
854.45374 412.2634 112.58715 4278190080
77.46064 324.82846 1019.0863 4278190080
431.64969 415.0784 619.05322 4278190080
85.999168 766.23657 154.14618 4278190080
30.582342 65.870056 488.58444 4278190080
406.44565 891.13495 751.96094 4278190080
5.8498874 305.8779 595.88654 4278190080
980.15381 913.08948 164.39914 4278190080
976.67804 64.744652 509.41104 4278190080
427.24924 275.36102 833.8407 4278190080
227.97298 105.81477 222.10408 4278190080
340.56012 183.27541 546.93256 4278190080
335.64639 614.92511 962.01093 4278190080
954.69965 700.92426 704.2475 4278190080
84.845818 731.50659 770.11755 4278190080
573.43024 113.95223 637.2525 4278190080
301.39117 119.80212 943.13037 4278190080
897.27771 75.955925 832.21985 4278190080
37.676853 28.633987 896.96448 4278190080
547.08789 455.88324 148.32552 4278190080
356.92859 683.8562 254.14027 4278190080
579.03265 0.41633511 437.41568 4278190080
101.96523 336.06274 28.340763 4278190080
39.976166 266.76239 729.26501 4278190080
744.22363 351.60822 436.77161 4278190080
490.34119 925.03845 550.72388 4278190080
103.59367 202.42961 670.526 4278190080
22.724054 75.707329 746.48187 4278190080
854.94391 113.38419 775.11591 4278190080
727.90839 660.47211 206.99911 4278190080
876.23389 1017.4007 890.85535 4278190080
106.37418 572.43335 891.27167 4278190080
543.78986 674.39856 203.3344 4278190080
572.13062 714.37476 470.09677 4278190080
277.39563 434.59839 821.70496 4278190080
714.16724 924.93958 722.74341 4278190080
240.89111 4.5332394 925.17303 4278190080
911.41705 27.257294 1000.8804 4278190080
633.89899 882.20117 90.264572 4278190080
385.01486 586.10956 750.73663 4278190080
