# .PCD v0.7 - Point Cloud Data file format
VERSION 0.7
FIELDS x y z rgb
SIZE 4 4 4 4
TYPE F F F U
COUNT 1 1 1 1
WIDTH 1175
HEIGHT 1
VIEWPOINT 0 0 0 1 0 0 0
POINTS 1175
DATA ascii
723.69153 798.49573 547.83997 4278190080
826.82465 525.41589 685.61151 4278190080
49.047749 121.2689 479.32062 4278190080
105.93176 704.57794 305.63403 4278190080
115.37965 749.18982 730.3241 4278190080
282.276 1022.9773 666.20898 4278190080
230.95882 64.961769 226.31952 4278190080
212.59348 401.54407 941.34601 4278190080
80.414001 245.80769 18.906193 4278190080
476.80011 277.65292 424.78073 4278190080
183.59541 1001.3445 199.27644 4278190080
731.43542 804.16913 724.69232 4278190080
393.04691 853.21686 845.96124 4278190080
872.36749 959.14862 526.53918 4278190080
154.00154 50.528294 251.72905 4278190080
884.32562 332.80429 250.70638 4278190080
526.53461 563.76312 315.66812 4278190080
752.85413 776.35657 717.21222 4278190080
670.20013 856.77057 963.0199 4278190080
689.10632 309.57068 216.67284 4278190080
89.887077 493.16611 194.0173 4278190080
289.16351 200.6015 998.18646 4278190080
1013.8559 593.64838 827.40332 4278190080
835.81714 442.01593 762.55194 4278190080
338.35632 596.01746 813.08026 4278190080
590.08539 456.34308 121.88456 4278190080
840.79175 982.87769 685.64764 4278190080
132.45987 711.73181 438.00427 4278190080
849.67206 357.93198 270.77484 4278190080
788.69202 23.038321 580.34552 4278190080
1005.3648 112.9254 49.511646 4278190080
175.38213 402.08893 250.11316 4278190080
149.56856 391.94479 843.76154 4278190080
976.97186 203.76192 261.77747 4278190080
715.52386 542.11823 857.79492 4278190080
504.60413 108.20361 290.13803 4278190080
626.48871 948.99536 249.01573 4278190080
288.13635 57.455231 960.74756 4278190080
726.14062 907.12732 294.67953 4278190080
996.91547 671.81934 317.71783 4278190080
553.26105 653.18414 430.64325 4278190080
602.77264 828.56628 832.73218 4278190080
852.8858 978.13483 200.67697 4278190080
672.6474 931.10669 404.43887 4278190080
934.42487 622.63055 946.55713 4278190080
768.21979 103.23469 30.76075 4278190080
34.357838 729.72339 979.7561 4278190080
283.37357 1017.8597 13.211336 4278190080
220.12112 720.00031 920.33862 4278190080
514.80066 692.91583 568.15796 4278190080
832.51849 222.17682 197.34209 4278190080
239.16174 824.94946 1.9083467 4278190080
47.893906 653.83533 980.04315 4278190080
248.57088 302.4827 887.1499 4278190080
653.00977 212.90755 485.78046 4278190080
575.56689 981.12738 589.01514 4278190080
606.32764 1015.4852 294.73849 4278190080
562.08374 274.85876 288.59821 4278190080
575.2951 494.97989 1008.5986 4278190080
471.63373 1009.7805 677.51434 4278190080
15.791702 818.29901 899.69116 4278190080
213.13379 33.460762 700.64069 4278190080
215.04214 81.354668 330.47598 4278190080
171.08531 329.92554 632.95868 4278190080
34.235184 982.9353 845.86621 4278190080
520.01562 534.5022 802.99359 4278190080
85.030762 116.82985 794.47876 4278190080
379.76926 678.91364 45.337532 4278190080
668.36749 230.20869 540.31744 4278190080
652.966 701.84241 526.09796 4278190080
306.48038 717.63416 320.39697 4278190080
182.17155 930.76794 353.85773 4278190080
882.81226 121.81007 435.2124 4278190080
189.28821 292.89539 765.13794 4278190080
822.24689 327.13055 724.07324 4278190080
644.1131 847.14618 234.57545 4278190080
423.10666 932.17694 351.4053 4278190080
193.58543 287.9462 6.3189173 4278190080
238.92297 956.31366 236.52762 4278190080
779.24042 585.27966 938.37006 4278190080
281.33835 891.76007 632.00421 4278190080
601.73535 49.931622 538.77209 4278190080
955.59308 932.74384 660.58221 4278190080
366.80548 98.032059 953.4776 4278190080
107.94342 920.27893 256.60812 4278190080
832.01666 540.39203 79.754326 4278190080
42.592133 963.49872 1011.9313 4278190080
393.99744 133.08414 275.87747 4278190080
400.31635 372.00711 208.19116 4278190080
636.84399 127.24751 793.47083 4278190080
551.21405 408.58585 661.2309 4278190080
159.21822 1010.3212 711.16254 4278190080
697.99036 941.91425 619.90637 4278190080
334.57254 284.7197 717.93842 4278190080
264.05011 392.66312 614.21735 4278190080
520.6582 200.67979 130.60939 4278190080
600.41254 243.27191 70.108101 4278190080
588.34381 637.26935 203.19225 4278190080
864.22131 13.585723 575.19934 4278190080
48.412468 650.42969 702.44684 4278190080
841.8833 177.64372 87.032707 4278190080
479.11423 336.86194 73.353874 4278190080
166.27676 10.852272 1015.2681 4278190080
786.18317 345.4248 275.98779 4278190080
480.12158 609.47491 668.65094 4278190080
70.338943 106.13313 869.33069 4278190080
200.94833 706.54572 88.602631 4278190080
271.05643 270.88953 725.87201 4278190080
474.24869 111.11084 739.4577 4278190080
25.44803 159.5233 365.88742 4278190080
727.8949 1001.4066 543.53113 4278190080
814.92761 456.52084 880.39307 4278190080
888.28149 622.79761 891.24536 4278190080
879.54956 384.98074 212.67014 4278190080
131.53738 865.10229 822.14502 4278190080
800.18829 935.44128 928.2782 4278190080
645.51898 112.3896 610.82385 4278190080
734.12164 383.44604 881.71338 4278190080
435.99362 857.6947 992.82422 4278190080
151.45134 883.14276 128.34753 4278190080
517.33875 587.03766 105.75415 4278190080
36.869888 377.96521 562.27502 4278190080
917.26294 242.24669 161.0726 4278190080
784.5083 97.796257 546.05334 4278190080
997.17841 229.33363 387.15564 4278190080
795.32349 5.5219359 298.59689 4278190080
699.60168 651.04095 410.98651 4278190080
286.42554 361.1626 794.43256 4278190080
144.13892 797.15619 628.12726 4278190080
112.96315 948.60754 487.26999 4278190080
241.31068 441.94632 50.307629 4278190080
347.06485 478.81622 428.27286 4278190080
909.33984 372.07916 670.51953 4278190080
46.41243 132.58746 768.3158 4278190080
592.46576 105.7659 997.64941 4278190080
979.6214 901.08936 1003.1714 4278190080
254.21832 576.69104 630.21234 4278190080
665.20483 863.11658 991.37488 4278190080
435.63736 1007.2555 764.53113 4278190080
39.764626 96.218636 689.13867 4278190080
527.03461 337.52933 107.085 4278190080
577.34222 684.59418 585.90118 4278190080
1005.6151 569.93402 957.98041 4278190080
652.13464 616.34644 66.567841 4278190080
396.45044 184.81219 172.33374 4278190080
370.09985 140.43361 49.423115 4278190080
349.27124 394.65195 626.11414 4278190080
979.48352 35.856766 465.23071 4278190080
946.85846 471.49414 448.48618 4278190080
687.38959 511.25876 544.70483 4278190080
352.52823 14.29339 882.23413 4278190080
459.61325 591.63562 542.82831 4278190080
21.514456 573.25073 88.762306 4278190080
979.49481 201.38539 705.10876 4278190080
22.062677 597.83582 889.92096 4278190080
194.39642 967.93567 6.3545446 4278190080
243.81953 293.20694 401.00647 4278190080
869.93365 248.69048 436.86325 4278190080
311.16437 171.54892 908.35736 4278190080
759.65057 858.93848 395.61615 4278190080
280.35538 187.46674 409.90955 4278190080
138.58952 647.07996 1001.5452 4278190080
681.41785 668.59442 550.79596 4278190080
770.18011 624.08929 752.18134 4278190080
451.28888 646.15198 326.01715 4278190080
317.20981 840.54834 269.95285 4278190080
323.56436 60.367897 563.15979 4278190080
724.57086 930.30157 811.85022 4278190080
137.43408 217.46596 983.39917 4278190080
21.791473 977.11652 818.33765 4278190080
417.40762 233.47191 1005.8044 4278190080
827.31714 372.06143 628.8844 4278190080
804.86237 29.479271 273.47879 4278190080
331.65829 799.65942 897.56805 4278190080
59.839611 226.94829 519.72003 4278190080
385.85675 544.15808 336.2684 4278190080
655.80957 867.72247 396.63629 4278190080
194.96936 568.29327 302.93787 4278190080
1006.8196 705.72736 520.40381 4278190080
966.21875 727.51886 473.52036 4278190080
760.55646 120.92648 706.99225 4278190080
742.36084 948.24365 55.053692 4278190080
347.24518 729.10602 84.532959 4278190080
620.724 36.76429 884.19238 4278190080
494.29208 96.603905 87.140663 4278190080
1014.0121 482.46066 631.29877 4278190080
326.28049 114.27026 475.02124 4278190080
722.91675 309.23962 19.314518 4278190080
1.8546295 292.05923 725.04187 4278190080
522.25842 234.27798 428.56076 4278190080
995.77881 994.83441 549.48724 4278190080
678.77106 713.19525 473.73087 4278190080
733.82471 36.440437 178.83687 4278190080
818.35773 657.16443 215.60117 4278190080
678.55005 127.4565 312.20508 4278190080
765.69073 117.4686 794.66571 4278190080
372.9895 443.74908 908.93597 4278190080
848.01074 142.66585 194.1756 4278190080
867.32526 144.52048 486.23483 4278190080
568.36713 666.77893 720.51282 4278190080
996.92792 638.55774 691.34723 4278190080
522.4151 293.32877 380.54248 4278190080
996.146 3.1535034 416.98291 4278190080
150.98286 821.51123 50.14735 4278190080
366.58401 476.06128 177.60385 4278190080
678.78906 217.75201 295.07245 4278190080
449.45483 590.74152 738.82153 4278190080
334.39081 414.75226 881.48737 4278190080
528.56641 258.07751 2.0078721 4278190080
1014.8012 826.44464 668.7868 4278190080
711.31403 799.37256 283.34451 4278190080
378.66129 297.78769 576.67328 4278190080
759.20374 269.93369 579.82678 4278190080
152.18668 420.91653 377.33801 4278190080
202.33401 787.50055 853.39929 4278190080
379.93787 442.28964 47.151291 4278190080
675.01031 891.74445 637.89282 4278190080
389.83188 202.13528 28.645081 4278190080
247.31926 730.70172 286.7226 4278190080
249.32713 721.50293 89.167259 4278190080
918.11395 408.81696 888.53979 4278190080
177.45847 787.47827 162.3275 4278190080
754.13177 522.68201 432.26117 4278190080
309.95856 674.86865 853.17773 4278190080
687.29657 877.2027 616.67828 4278190080
516.6958 233.14056 34.967918 4278190080
563.84711 908.15088 926.7124 4278190080
177.73993 273.98276 104.84768 4278190080
206.38501 521.302 835.54938 4278190080
493.1076 770.62915 533.05231 4278190080
582.27484 664.7431 941.86926 4278190080
446.8147 842.20154 705.34747 4278190080
609.14215 572.33331 204.02951 4278190080
17.403351 882.29187 878.89819 4278190080
870.58105 545.58838 732.10089 4278190080
463.25931 38.284225 965.24146 4278190080
498.22723 602.13135 849.39233 4278190080
400.93964 779.87128 99.375107 4278190080
505.78732 986.25629 620.67712 4278190080
317.3367 455.36389 367.3063 4278190080
850.38898 13.638754 8.0493975 4278190080
768.25824 460.45343 850.25098 4278190080
449.60574 45.595619 398.58426 4278190080
653.63525 62.99897 256.87613 4278190080
508.53342 933.58002 802.46454 4278190080
216.63429 372.83936 840.74878 4278190080
157.87573 871.06659 418.8801 4278190080
1007.2681 248.00623 174.75136 4278190080
82.643166 753.79352 137.00764 4278190080
703.32031 47.13023 592.37152 4278190080
46.626598 897.51923 606.01031 4278190080
54.675995 641.77747 42.463722 4278190080
904.92694 67.383186 88.059341 4278190080
279.51123 721.01843 151.0583 4278190080
536.38733 205.55185 60.638336 4278190080
314.85187 422.18613 433.47769 4278190080
131.60063 580.06189 280.54428 4278190080
550.48071 563.3299 528.55048 4278190080
725.23212 645.97308 258.34406 4278190080
862.23975 325.2934 305.47427 4278190080
430.61127 371.91998 178.99348 4278190080
12.62155 426.59598 820.77094 4278190080
55.085274 307.52295 888.15411 4278190080
143.14461 587.03418 585.17255 4278190080
294.20291 99.421501 790.72443 4278190080
354.84125 414.27338 188.91054 4278190080
788.31897 545.87402 768.97241 4278190080
44.863213 72.354744 308.30234 4278190080
573.4137 797.58685 954.27539 4278190080
831.75775 635.82654 255.5688 4278190080
113.23204 42.437828 627.48877 4278190080
292.22552 55.05938 30.084768 4278190080
88.996468 110.14465 337.6077 4278190080
977.15057 253.28926 924.64185 4278190080
538.32312 547.49219 0.063358784 4278190080
305.04755 902.33344 414.33673 4278190080
493.95807 666.6524 960.21075 4278190080
238.93048 711.51556 8.5654984 4278190080
547.23279 260.92932 806.15234 4278190080
477.50821 68.687073 417.97888 4278190080
733.07703 181.91911 460.41672 4278190080
336.5658 474.14465 515.47607 4278190080
366.65057 563.14111 625.62073 4278190080
704.2583 516.29169 878.91003 4278190080
604.90015 30.614841 402.40219 4278190080
604.9635 335.66238 280.73563 4278190080
1019.3002 829.62048 947.388 4278190080
955.51099 44.550949 634.90363 4278190080
964.07648 591.78375 895.83295 4278190080
746.22882 45.291981 964.52002 4278190080
140.20772 778.36902 122.43911 4278190080
600.62445 90.934814 596.58374 4278190080
92.10054 457.58539 135.72487 4278190080
717.72131 137.84367 652.0166 4278190080
572.63129 742.74384 682.63141 4278190080
975.03351 323.70731 1018.2938 4278190080
231.76915 319.00754 823.91425 4278190080
155.15717 250.51854 868.46521 4278190080
790.06079 190.59503 436.24896 4278190080
661.89368 936.82385 481.54095 4278190080
602.4137 53.031563 235.90996 4278190080
724.85278 653.65601 326.84476 4278190080
297.43655 745.75653 784.43018 4278190080
433.16144 439.47784 922.2738 4278190080
61.178005 1012.1091 641.01764 4278190080
743.80939 963.14264 964.72498 4278190080
738.10321 170.9118 259.73248 4278190080
538.01746 326.06897 510.25104 4278190080
382.4827 92.129753 700.84607 4278190080
818.73163 754.02344 613.66992 4278190080
276.27261 332.43713 666.70148 4278190080
512.18256 33.289948 296.35745 4278190080
839.02734 330.7265 18.114014 4278190080
599.45752 763.88794 457.59186 4278190080
497.73132 825.06592 445.70102 4278190080
114.74897 544.87537 384.84369 4278190080
55.473923 258.97858 555.75549 4278190080
315.20642 796.99603 881.82446 4278190080
825.45746 155.47874 973.95422 4278190080
502.3035 974.21039 703.97766 4278190080
91.973412 226.483 12.414811 4278190080
758.67487 738.66559 45.704758 4278190080
31.032347 553.69287 376.43127 4278190080
49.146362 129.15039 116.31921 4278190080
506.73822 626.88171 941.38513 4278190080
952.43921 741.63068 462.26053 4278190080
313.2829 797.10461 721.23907 4278190080
869.03839 88.311043 494.23514 4278190080
726.86285 913.76849 649.71387 4278190080
676.81708 392.07199 599.92426 4278190080
356.79474 484.04541 826.40729 4278190080
369.20953 218.72031 541.07288 4278190080
414.91431 249.75264 70.765755 4278190080
791.34558 298.89902 199.91615 4278190080
907.66479 805.63721 826.79785 4278190080
825.04993 734.07648 544.42859 4278190080
263.31046 23.359352 317.53317 4278190080
984.54956 892.39777 405.84421 4278190080
454.78467 595.26062 295.6127 4278190080
80.498558 248.07765 687.68469 4278190080
680.42285 604.87238 147.73013 4278190080
482.83011 974.08197 366.45044 4278190080
1023.903 364.99625 616.20306 4278190080
70.668724 132.34183 915.10211 4278190080
270.58487 16.006603 696.73932 4278190080
73.382744 841.05652 406.81577 4278190080
617.81128 80.366974 430.17511 4278190080
935.34448 40.916512 298.57285 4278190080
317.18872 495.7012 893.83344 4278190080
612.80139 576.19977 117.9111 4278190080
276.48615 232.62257 722.78351 4278190080
424.21628 715.4527 672.86542 4278190080
790.66669 715.35565 13.861696 4278190080
382.86981 786.02441 146.20352 4278190080
273.97189 32.609268 162.21013 4278190080
970.71124 105.99201 1003.2667 4278190080
353.52698 723.80334 59.633633 4278190080
783.70209 635.14783 100.55015 4278190080
58.274952 952.33649 596.25134 4278190080
952.1084 541.13794 148.45108 4278190080
46.019505 817.62408 381.07367 4278190080
768.80298 217.84035 72.526352 4278190080
417.66846 1008.5071 787.88202 4278190080
431.53015 367.37686 549.90643 4278190080
577.73364 641.34875 582.51569 4278190080
739.94379 588.06 688.50769 4278190080
719.21045 941.58698 388.311 4278190080
778.84406 701.28906 1023.4588 4278190080
879.39423 759.56403 951.79529 4278190080
451.64557 687.67242 468.93323 4278190080
600.09662 733.69189 262.55731 4278190080
981.17029 478.4949 480.39764 4278190080
29.696653 896.16339 464.90469 4278190080
817.57867 303.69351 832.28156 4278190080
343.48511 881.42719 449.63031 4278190080
926.00079 597.37097 13.690289 4278190080
590.50848 292.58142 955.27722 4278190080
978.81946 47.425503 632.56628 4278190080
978.27826 926.8197 368.13028 4278190080
906.07361 354.4653 31.802685 4278190080
351.00684 954.56195 765.49457 4278190080
613.56415 911.73224 219.9895 4278190080
69.961761 941.42889 92.15287 4278190080
534.86646 735.00757 395.84637 4278190080
343.14801 54.492657 253.27356 4278190080
792.77832 980.49341 850.64453 4278190080
806.46863 547.00189 119.22596 4278190080
737.74585 501.82138 166.65146 4278190080
346.31216 456.09964 69.471199 4278190080
714.44244 338.17322 423.93649 4278190080
746.24512 689.18005 354.49841 4278190080
487.73972 278.74417 242.23065 4278190080
707.72925 348.70593 159.65955 4278190080
799.88208 883.57239 894.66711 4278190080
171.72847 202.72043 949.15979 4278190080
425.00204 995.49878 905.6532 4278190080
251.64658 777.96741 428.65509 4278190080
370.87253 491.71326 930.47644 4278190080
537.52399 838.02539 362.57611 4278190080
606.99518 528.46783 700.74933 4278190080
6.9316888 250.71298 365.92938 4278190080
361.43011 738.4527 644.67358 4278190080
603.66077 422.18192 993.37952 4278190080
763.32031 198.06401 852.9519 4278190080
633.98743 369.79248 31.672335 4278190080
559.14722 794.79449 3.1710982 4278190080
440.80038 22.44109 781.13849 4278190080
869.45551 393.31363 248.85176 4278190080
775.93195 930.83765 62.877171 4278190080
114.50806 513.83282 591.34503 4278190080
815.25739 520.76453 842.05798 4278190080
157.1868 882.19464 556.51074 4278190080
801.86035 461.85541 978.69263 4278190080
771.23987 201.17572 152.75665 4278190080
600.19177 835.16315 522.54913 4278190080
631.86414 370.31036 293.34366 4278190080
635.03522 811.11078 315.78473 4278190080
392.17371 656.56622 709.09839 4278190080
641.02545 408.4982 615.93597 4278190080
703.90265 523.00629 105.76881 4278190080
271.24768 314.26367 626.53333 4278190080
89.305679 471.45047 484.72794 4278190080
645.81641 249.31084 946.58331 4278190080
600.50903 1020.5507 123.75906 4278190080
753.26569 596.74249 958.92224 4278190080
251.81482 204.60661 305.23257 4278190080
545.15845 839.64185 92.34333 4278190080
860.94324 207.81555 748.90961 4278190080
546.04156 848.841 133.40778 4278190080
137.97755 528.74365 656.41406 4278190080
243.74637 799.99133 970.67773 4278190080
870.27966 889.297 418.12817 4278190080
331.00763 511.1134 667.43903 4278190080
253.59096 87.622437 663.98975 4278190080
377.35004 840.88812 236.73222 4278190080
312.27225 68.702942 441.33884 4278190080
617.50482 613.86139 256.98068 4278190080
709.84814 450.80463 464.79623 4278190080
434.75772 996.84619 289.63727 4278190080
568.16553 110.82376 818.38092 4278190080
200.57956 354.57013 594.37225 4278190080
147.25728 200.84981 459.66925 4278190080
565.3855 531.85742 970.78265 4278190080
208.82449 785.44836 34.405075 4278190080
872.81421 138.7984 875.29321 4278190080
85.54644 451.07065 943.99615 4278190080
526.88525 44.575459 533.85754 4278190080
783.86597 754.42358 984.66217 4278190080
224.6622 165.18132 957.50836 4278190080
514.29944 733.3468 44.332142 4278190080
308.68036 933.92639 398.90225 4278190080
903.05261 57.183662 599.75208 4278190080
338.72183 622.56915 107.60948 4278190080
285.50449 831.39362 893.05786 4278190080
319.90955 680.20782 7.8562727 4278190080
171.20276 765.75427 458.92691 4278190080
91.198891 268.63956 503.50238 4278190080
625.05646 28.50552 233.92598 4278190080
585.71863 253.16772 399.1073 4278190080
519.22699 767.46716 108.45412 4278190080
563.55914 52.147541 18.380508 4278190080
962.46143 955.20013 75.564171 4278190080
538.2135 269.922 698.1333 4278190080
645.823 555.42645 505.52692 4278190080
514.88086 875.336 161.73476 4278190080
522.73712 22.538774 927.48901 4278190080
981.664 113.73767 172.12859 4278190080
461.16641 738.79413 200.63409 4278190080
695.09241 300.51276 453.80182 4278190080
70.199684 819.73975 197.269 4278190080
178.65381 359.29892 249.41653 4278190080
197.03432 297.76035 180.61668 4278190080
272.59848 835.97382 450.53867 4278190080
970.73181 457.79681 1005.9651 4278190080
452.2587 972.67761 857.30115 4278190080
613.99347 471.41473 879.8399 4278190080
517.48248 429.07877 993.57758 4278190080
689.61108 890.24518 708.3717 4278190080
890.24518 561.33759 1008.8845 4278190080
320.047 631.53723 804.62427 4278190080
517.31598 810.19104 139.92317 4278190080
766.73254 1007.2254 437.68353 4278190080
947.34918 255.82387 249.65735 4278190080
373.88788 202.55566 707.45416 4278190080
355.85303 654.81439 656.13177 4278190080
189.15417 244.80783 103.54653 4278190080
44.99411 762.29028 532.62531 4278190080
14.571712 427.90137 398.87048 4278190080
722.94342 294.14655 960.20807 4278190080
707.82788 614.19354 567.7453 4278190080
488.45215 107.50951 353.93634 4278190080
628.37531 874.242 337.16171 4278190080
42.058842 797.59125 592.9856 4278190080
291.71619 147.47913 795.54126 4278190080
999.17035 503.33212 426.35562 4278190080
631.30212 692.48633 671.16345 4278190080
734.84869 737.48041 409.45374 4278190080
243.47397 752.05212 837.3551 4278190080
642.34448 450.99557 107.50166 4278190080
578.55249 134.82347 721.69519 4278190080
122.29778 623.27563 829.20471 4278190080
476.23413 227.65094 679.44672 4278190080
813.39587 269.70978 453.03796 4278190080
382.38144 561.42596 600.51709 4278190080
153.92268 536.59631 79.849213 4278190080
580.27832 143.89847 772.33551 4278190080
227.44174 878.74713 485.81595 4278190080
636.89551 98.221115 213.86809 4278190080
450.25061 740.56555 664.86365 4278190080
557.75226 295.11807 799.68713 4278190080
255.44745 417.41586 398.96274 4278190080
60.652138 893.64996 626.61371 4278190080
740.09888 683.04584 896.32349 4278190080
169.13681 41.427258 433.74945 4278190080
769.65387 195.34995 970.34576 4278190080
849.50311 775.62823 90.244255 4278190080
597.83862 1003.07 968.99139 4278190080
59.654575 615.96545 43.212509 4278190080
273.52267 42.216087 783.77808 4278190080
938.38629 599.96838 54.896149 4278190080
714.07343 855.41583 472.31201 4278190080
89.036194 916.06793 341.96198 4278190080
715.6499 632.16681 1.0077929 4278190080
587.97339 801.30359 42.435051 4278190080
1021.7228 546.95752 237.78499 4278190080
968.0686 372.4606 1013.4132 4278190080
34.31287 970.29926 992.48322 4278190080
1003.3043 5.9538155 584.44867 4278190080
22.516775 279.47647 626.66479 4278190080
806.29486 193.86279 202.63315 4278190080
861.19098 907.93622 34.048946 4278190080
309.50299 996.97241 950.11688 4278190080
651.46497 688.62231 558.28369 4278190080
652.47278 252.59567 335.58731 4278190080
694.90784 250.3185 882.5448 4278190080
932.69281 194.38712 231.00543 4278190080
922.10608 228.69998 177.30467 4278190080
890.58929 208.00424 183.2585 4278190080
451.03796 230.52103 462.73495 4278190080
53.702751 12.815882 656.59778 4278190080
256.33591 874.0069 540.534 4278190080
290.38483 159.50989 513.50641 4278190080
216.50174 810.97485 178.12872 4278190080
774.78546 439.44763 430.7244 4278190080
86.372749 110.35546 681.04291 4278190080
968.9176 19.048275 875.42999 4278190080
175.923 941.1543 80.130005 4278190080
353.22769 807.74359 288.13425 4278190080
536.48621 234.78156 518.65527 4278190080
999.22113 288.48431 531.47113 4278190080
631.81891 544.82019 381.47806 4278190080
148.35291 835.20508 540.98792 4278190080
661.85931 27.706783 327.9628 4278190080
839.98804 802.49219 767.41046 4278190080
246.71245 888.86499 877.76593 4278190080
927.75537 833.78253 896.81421 4278190080
779.18536 1009.7056 813.96851 4278190080
859.31537 338.93323 597.7121 4278190080
123.44962 875.41943 832.49365 4278190080
642.10492 850.64056 96.977982 4278190080
149.57607 458.45947 641.79822 4278190080
531.05414 606.81238 453.00323 4278190080
48.042053 244.67169 480.71002 4278190080
376.00485 60.659744 259.20224 4278190080
119.41532 307.37219 124.0672 4278190080
997.18121 211.12755 957.84973 4278190080
869.99542 990.31293 943.5553 4278190080
659.96393 825.6283 258.48853 4278190080
233.67604 949.07788 109.90794 4278190080
42.169716 567.1828 960.54852 4278190080
139.14771 716.75885 395.008 4278190080
780.94586 223.81299 1001.8204 4278190080
209.94913 271.85504 222.49207 4278190080
690.65918 647.85992 283.15179 4278190080
949.86139 767.27521 590.52399 4278190080
49.928596 740.45642 801.65155 4278190080
1007.7783 586.4519 767.96448 4278190080
927.33362 222.41582 569.59271 4278190080
161.82214 456.09186 494.67065 4278190080
271.7301 498.26157 37.853466 4278190080
208.27859 637.40924 754.61237 4278190080
603.28656 394.35516 978.42529 4278190080
581.10693 604.30426 226.28035 4278190080
803.599 270.96344 874.14026 4278190080
62.75082 196.82483 617.41547 4278190080
653.27484 246.75343 333.87192 4278190080
430.92636 230.53177 920.32379 4278190080
174.89081 133.86539 118.73961 4278190080
744.48352 295.68753 574.83148 4278190080
215.15421 567.4176 49.093033 4278190080
253.00766 775.69623 686.50232 4278190080
1007.62 354.98282 56.857456 4278190080
962.04535 936.08978 661.16174 4278190080
164.32568 715.68878 932.12518 4278190080
14.465938 778.43964 104.95003 4278190080
631.88141 407.71442 351.70346 4278190080
965.75336 838.64081 582.23523 4278190080
862.07715 1013.5316 716.10059 4278190080
980.81671 734.01514 1011.7881 4278190080
531.64819 949.16937 555.20581 4278190080
580.74121 178.17702 306.90201 4278190080
243.24353 161.79701 661.88483 4278190080
300.10098 99.842339 573.97461 4278190080
961.26276 264.16803 265.66342 4278190080
869.38794 278.63397 20.103024 4278190080
974.33795 910.51538 427.81744 4278190080
302.04141 852.26868 242.45824 4278190080
884.27661 690.34583 231.98984 4278190080
576.37726 647.1626 966.005 4278190080
564.16541 154.81078 891.17432 4278190080
95.371178 735.552 45.35133 4278190080
402.27319 978.79553 207.14835 4278190080
40.158035 254.89651 306.99069 4278190080
614.13263 192.15926 571.15869 4278190080
879.79608 37.547173 849.79266 4278190080
899.89911 1011.8851 736.30804 4278190080
303.71655 289.92651 564.57672 4278190080
546.1748 150.20314 230.92258 4278190080
778.16461 726.58038 878.08514 4278190080
720.16956 266.74576 8.8959131 4278190080
587.34393 362.11694 744.44794 4278190080
632.69525 764.39014 699.24347 4278190080
839.84357 804.54816 954.13995 4278190080
122.83426 394.68085 122.29922 4278190080
693.99298 250.4769 159.84639 4278190080
519.78564 126.37598 147.73151 4278190080
232.09367 430.09253 437.65802 4278190080
796.67041 976.26733 587.86115 4278190080
3.5929856 730.43195 290.44156 4278190080
881.6781 426.6015 557.18732 4278190080
890.57404 1013.9454 919.30426 4278190080
611.02197 622.64062 659.6944 4278190080
286.26541 438.48422 440.24258 4278190080
216.40536 561.31848 834.9234 4278190080
338.70459 231.31145 61.400322 4278190080
498.55096 751.09711 187.77631 4278190080
646.28247 983.19073 617.86884 4278190080
59.940514 755.86115 570.13617 4278190080
647.8017 759.45416 276.56805 4278190080
938.24323 617.13226 703.16956 4278190080
471.43057 483.70633 693.11499 4278190080
366.73483 70.728279 291.75562 4278190080
2.4292397 356.99368 730.23981 4278190080
442.67181 573.39905 267.55829 4278190080
253.59525 912.10364 498.86975 4278190080
314.99557 386.6546 225.96683 4278190080
502.77188 8.9370947 185.15759 4278190080
96.640709 68.877609 941.01874 4278190080
666.77686 716.67932 676.4729 4278190080
943.34491 630.92255 269.60519 4278190080
622.51447 78.353096 753.31152 4278190080
291.62943 445.08792 824.03979 4278190080
583.38501 447.51715 157.03349 4278190080
289.62485 890.18896 730.43256 4278190080
557.18317 119.78425 618.53619 4278190080
32.052895 434.77982 1005.1908 4278190080
258.01971 937.5517 1014.1279 4278190080
443.17731 10.192405 59.005497 4278190080
360.19608 676.96924 775.68481 4278190080
12.669001 596.31415 382.60733 4278190080
282.2742 194.82863 460.96042 4278190080
11.585732 486.45804 906.04834 4278190080
835.62555 45.843071 329.56552 4278190080
992.65906 335.46793 195.75452 4278190080
699.09161 892.65106 315.53876 4278190080
293.62778 924.70398 750.31854 4278190080
274.81857 158.72369 663.87024 4278190080
264.94644 601.901 674.06268 4278190080
323.95197 962.09711 327.03192 4278190080
75.636742 974.76611 923.34607 4278190080
458.24408 233.0403 94.174713 4278190080
919.20447 244.62602 580.63275 4278190080
801.25287 56.251572 626.47583 4278190080
106.81837 24.910612 961.94373 4278190080
302.57288 724.0022 830.59479 4278190080
618.11163 1017.6299 731.29877 4278190080
344.43021 268.44855 890.02246 4278190080
1008.3005 533.39502 467.92346 4278190080
658.36316 857.34692 406.02057 4278190080
985.39508 932.9837 356.78665 4278190080
884.74115 367.22775 589.82697 4278190080
978.91589 262.43225 834.453 4278190080
535.54865 39.685108 890.70453 4278190080
138.02446 146.50348 915.61517 4278190080
75.968208 449.07635 615.61737 4278190080
906.56305 43.187988 609.24731 4278190080
613.86182 387.61819 877.69586 4278190080
479.88425 371.91867 387.09088 4278190080
947.80774 6.2818155 220.43782 4278190080
329.82831 991.67688 129.42151 4278190080
686.61493 852.41803 496.64926 4278190080
252.44191 807.33392 759.08154 4278190080
62.894901 318.88254 798.7666 4278190080
953.59949 456.90698 945.27008 4278190080
845.21466 532.87518 370.34647 4278190080
436.832 415.43823 413.53445 4278190080
22.079346 5.3000197 801.15265 4278190080
899.77521 485.18427 149.07132 4278190080
262.86609 408.992 155.35313 4278190080
483.30392 738.82031 123.03002 4278190080
612.7254 401.43527 975.44806 4278190080
85.374672 653.8772 758.78198 4278190080
844.45618 716.77209 53.664516 4278190080
619.22284 646.37152 510.5715 4278190080
540.49292 467.58618 19.446716 4278190080
910.83942 904.41815 434.88495 4278190080
300.37384 926.4975 440.18497 4278190080
77.526489 802.27277 925.36926 4278190080
226.59781 41.138847 310.36124 4278190080
381.95093 524.44275 25.181559 4278190080
504.98096 113.16817 426.61682 4278190080
456.42902 198.54285 56.494011 4278190080
191.211 18.999043 773.26611 4278190080
244.87552 638.22186 395.63763 4278190080
755.44702 154.7148 863.22382 4278190080
774.89374 41.554188 743.64203 4278190080
185.77869 341.92804 646.13953 4278190080
625.96362 419.45453 424.41226 4278190080
527.33289 646.05231 465.55112 4278190080
837.69415 4.003262 989.9939 4278190080
862.87567 508.98422 79.162056 4278190080
265.49252 965.41327 277.7049 4278190080
321.98654 132.62425 296.70395 4278190080
71.252632 377.49976 934.92584 4278190080
466.89026 108.94679 65.640617 4278190080
306.11411 883.84052 107.1948 4278190080
25.75609 45.619232 449.12283 4278190080
671.89563 671.58289 868.57733 4278190080
72.307892 174.91577 490.62967 4278190080
537.85901 1012.6099 494.63293 4278190080
503.85291 851.4856 1003.6171 4278190080
583.01495 92.978142 945.0304 4278190080
860.71985 414.96469 53.654648 4278190080
133.42383 486.21732 431.15442 4278190080
44.34964 953.1076 540.1012 4278190080
109.99025 235.22166 399.94174 4278190080
217.18506 260.97775 445.56097 4278190080
666.30786 932.87335 93.143867 4278190080
510.88522 1005.1813 268.05963 4278190080
1001.5149 519.04028 256.66956 4278190080
472.14783 1022.8932 84.155182 4278190080
451.76498 581.90814 177.13332 4278190080
372.79538 418.62802 592.09802 4278190080
426.45004 552.05188 54.315308 4278190080
857.60443 596.40149 1007.4229 4278190080
373.70566 706.39172 218.64455 4278190080
773.6474 923.57678 479.62231 4278190080
195.20837 565.8847 388.4957 4278190080
288.35223 52.769917 369.67694 4278190080
556.41187 30.284821 888.71722 4278190080
813.08148 502.43265 887.61041 4278190080
897.23663 954.19763 445.51859 4278190080
50.369953 302.99304 864.14661 4278190080
642.46796 729.44305 392.19846 4278190080
696.78326 563.04749 988.59998 4278190080
680.20612 936.75317 670.9917 4278190080
898.85071 686.40057 570.56848 4278190080
354.47299 881.60895 112.45317 4278190080
742.96869 145.9612 165.22308 4278190080
88.645645 702.37311 195.5079 4278190080
977.36285 491.45453 697.94055 4278190080
840.97333 364.69116 628.13818 4278190080
262.49191 415.06113 931.13123 4278190080
102.63852 33.529083 636.57428 4278190080
494.83698 730.31232 175.62181 4278190080
459.43692 386.51849 88.374985 4278190080
106.42863 261.36917 774.77557 4278190080
676.99713 615.84216 632.38452 4278190080
789.45026 334.81088 778.3457 4278190080
954.67334 423.45651 456.71878 4278190080
126.18127 376.8194 948.17334 4278190080
824.12183 193.79272 288.8645 4278190080
428.26004 456.28464 703.9256 4278190080
335.39127 558.92316 737.45471 4278190080
971.96558 29.760124 443.76703 4278190080
123.58739 489.19705 830.28552 4278190080
211.96237 595.62567 67.654709 4278190080
986.73792 248.6228 683.49689 4278190080
595.12244 14.073084 1018.3078 4278190080
349.46811 968.74646 417.76428 4278190080
806.18689 70.927719 794.58368 4278190080
730.36023 895.04956 988.3764 4278190080
1019.2247 299.3096 420.66104 4278190080
699.15033 634.70087 979.58417 4278190080
412.60501 582.66644 1009.3443 4278190080
856.37207 706.25385 474.54138 4278190080
662.65759 918.21619 46.167053 4278190080
730.31232 880.95416 294.78986 4278190080
389.80917 452.07657 308.86295 4278190080
384.11694 801.54468 253.60939 4278190080
801.88123 583.73157 324.53711 4278190080
572.46497 290.09177 195.58667 4278190080
536.84137 285.31647 494.89627 4278190080
957.50244 984.4668 105.59712 4278190080
913.08661 373.07178 688.26355 4278190080
898.43091 205.44383 370.5174 4278190080
348.97229 868.10144 264.73361 4278190080
395.13934 574.4137 121.68774 4278190080
689.9292 964.2229 573.76428 4278190080
998.79211 324.33984 351.30896 4278190080
228.40152 102.2211 935.04053 4278190080
552.9386 674.68604 201.13226 4278190080
748.52527 187.52742 486.44873 4278190080
219.42155 121.02983 446.9155 4278190080
325.01868 10.116425 819.98724 4278190080
1013.2822 908.5473 1.4311104 4278190080
359.79962 233.51961 869.53253 4278190080
624.5332 628.65894 419.94626 4278190080
746.22095 294.58813 360.16916 4278190080
295.98523 269.38025 684.50897 4278190080
647.29419 497.78177 786.7301 4278190080
558.33472 26.720398 437.41614 4278190080
759.46698 775.24567 624.94354 4278190080
221.9157 994.66724 745.97339 4278190080
668.83118 295.68591 756.08984 4278190080
464.81845 284.96814 640.63715 4278190080
466.24957 644.76776 874.15674 4278190080
311.7821 245.30098 478.8157 4278190080
731.72833 991.52191 773.40381 4278190080
67.897491 263.50717 18.784073 4278190080
752.40649 910.80133 516.56586 4278190080
515.1366 445.13605 543.28625 4278190080
952.55273 180.60304 294.53192 4278190080
553.49628 402.51874 265.19919 4278190080
275.4697 47.349922 560.88507 4278190080
7.5594997 512.1684 845.85327 4278190080
648.19666 978.41797 466.621 4278190080
498.35339 266.20004 711.922 4278190080
977.16907 997.92841 679.44391 4278190080
726.57294 41.825901 942.95111 4278190080
745.35699 794.23242 829.75244 4278190080
237.92284 285.36899 250.8885 4278190080
781.20905 213.92172 431.49155 4278190080
51.741005 767.41803 834.01025 4278190080
316.94019 18.887697 881.36017 4278190080
877.82526 26.447197 369.52856 4278190080
699.67853 674.64386 323.94653 4278190080
142.29955 148.99724 590.14661 4278190080
854.22156 102.16634 564.07501 4278190080
509.66547 828.73926 605.90088 4278190080
428.61655 550.09625 376.13327 4278190080
234.369 788.0191 661.50226 4278190080
485.25751 545.22815 875.42401 4278190080
916.74902 596.96918 618.84198 4278190080
726.75934 913.90936 637.72968 4278190080
584.11951 767.73462 664.17688 4278190080
953.64807 443.41318 314.82074 4278190080
253.59464 585.71271 463.81796 4278190080
843.74121 415.93427 565.98431 4278190080
383.81622 925.59973 370.72357 4278190080
989.7171 330.21628 920.81982 4278190080
341.85037 564.58527 684.83893 4278190080
1003.3527 25.8428 206.06706 4278190080
854.77661 942.59186 803.03619 4278190080
449.61862 645.3512 692.94556 4278190080
63.34832 205.4707 436.68021 4278190080
727.52521 135.11879 880.09338 4278190080
18.345942 388.71344 441.80609 4278190080
482.16391 208.45464 857.74036 4278190080
24.148237 592.27087 759.34009 4278190080
394.87183 557.98798 65.556381 4278190080
291.69165 899.83832 630.14166 4278190080
976.53058 879.19098 655.9845 4278190080
158.59761 709.96765 574.57629 4278190080
961.63385 135.58626 195.92749 4278190080
630.57941 198.93457 401.39819 4278190080
43.259602 926.45978 536.51697 4278190080
923.35297 944.80573 925.23041 4278190080
341.15906 402.96964 109.68506 4278190080
174.8994 427.11789 701.95593 4278190080
934.2395 821.98969 235.94386 4278190080
999.79584 89.681335 111.7822 4278190080
605.93756 42.211884 990.97321 4278190080
237.92201 200.80949 676.9408 4278190080
812.49835 138.44333 812.5271 4278190080
1008.4258 769.02277 1011.4617 4278190080
385.82404 812.28235 913.92145 4278190080
922.341 711.63531 834.72717 4278190080
823.57141 28.794361 213.69681 4278190080
933.25647 203.69376 640.8147 4278190080
611.2124 113.93324 438.80438 4278190080
847.15625 89.729111 528.48572 4278190080
958.93848 695.66663 570.69763 4278190080
925.91168 933.58862 771.50714 4278190080
578.85248 722.08698 909.95044 4278190080
367.37958 706.51282 654.97321 4278190080
354.84122 68.336823 443.25552 4278190080
244.76266 990.67786 130.89084 4278190080
55.48983 790.24927 159.6852 4278190080
269.18665 699.50574 363.37897 4278190080
910.00134 286.71814 477.31219 4278190080
324.80573 109.87441 567.04132 4278190080
853.29144 44.812878 238.70796 4278190080
399.98907 970.72455 148.2966 4278190080
147.49619 525.57703 870.38361 4278190080
33.44664 892.9566 552.89636 4278190080
688.4198 223.79781 621.23322 4278190080
107.67535 468.56046 587.91107 4278190080
238.56619 524.05029 354.16031 4278190080
398.25137 793.23694 29.666077 4278190080
761.63037 679.23828 316.38425 4278190080
214.94255 1004.044 426.25864 4278190080
781.98389 833.33545 471.07153 4278190080
1020.6918 209.32454 417.79608 4278190080
144.98842 356.82074 943.37311 4278190080
1015.372 390.26736 812.32965 4278190080
544.26837 54.687202 12.127475 4278190080
141.5016 162.36255 480.68793 4278190080
729.41266 400.92874 1004.7382 4278190080
59.572968 799.18011 773.97516 4278190080
89.239044 536.81049 429.21344 4278190080
405.62329 751.75299 409.25745 4278190080
831.88196 509.73688 218.5929 4278190080
278.95346 506.42868 427.91745 4278190080
696.74951 651.41711 784.73816 4278190080
616.12262 642.78912 151.00555 4278190080
404.45227 163.05748 205.69276 4278190080
416.57977 304.55908 368.0553 4278190080
897.2677 9.9717293 768.98407 4278190080
878.00592 69.544701 544.16418 4278190080
627.98108 158.78375 56.974651 4278190080
33.194519 564.40704 808.72766 4278190080
442.45197 372.28894 294.46454 4278190080
661.04486 651.24243 800.89325 4278190080
64.962303 323.99194 428.31033 4278190080
849.7005 940.11456 47.099426 4278190080
1000.7061 320.56683 210.15691 4278190080
182.3988 737.14661 514.716 4278190080
550.4541 610.41431 524.68774 4278190080
295.43817 464.42023 594.23242 4278190080
839.60236 68.401299 753.01617 4278190080
896.57703 101.59582 293.42319 4278190080
681.30469 544.04779 665.71216 4278190080
975.76923 181.09264 292.95456 4278190080
752.66241 246.05493 616.94647 4278190080
156.97276 71.755424 533.06104 4278190080
204.07219 48.461464 853.62787 4278190080
414.2291 230.86028 566.77448 4278190080
928.94507 781.31439 153.18877 4278190080
429.63281 52.752556 617.60895 4278190080
1023.8652 892.35492 686.01025 4278190080
752.88141 764.93188 787.60608 4278190080
22.304588 422.23657 307.65387 4278190080
688.01672 374.0058 488.74649 4278190080
980.97131 102.66823 734.80145 4278190080
573.91779 259.64099 806.55688 4278190080
82.978836 463.71317 855.01831 4278190080
936.60669 877.94226 61.87859 4278190080
479.3812 782.88739 843.19299 4278190080
632.56995 188.52019 895.94556 4278190080
226.17892 188.38541 764.30042 4278190080
912.18921 941.26678 505.23236 4278190080
675.79529 963.57141 927.46893 4278190080
983.44916 627.58813 277.47473 4278190080
448.19568 584.55945 380.14294 4278190080
158.9971 134.47722 639.78394 4278190080
965.55396 217.45607 79.497131 4278190080
796.57227 130.06277 957.43939 4278190080
858.45087 609.44397 716.32678 4278190080
677.64386 218.01393 904.84698 4278190080
549.58936 444.19284 69.232376 4278190080
289.8898 332.38205 1010.4992 4278190080
795.12219 1008.1774 950.07056 4278190080
698.59113 967.62653 553.65869 4278190080
976.06586 391.8222 114.21815 4278190080
332.2088 550.81927 248.69537 4278190080
971.99274 492.37323 466.15143 4278190080
27.489866 264.94553 596.21423 4278190080
984.92926 99.396385 181.65819 4278190080
677.25604 777.04022 399.67212 4278190080
558.10303 302.62961 843.86499 4278190080
627.33539 592.51941 152.24704 4278190080
613.83459 363.64157 136.42439 4278190080
539.90515 38.232666 80.050911 4278190080
69.563866 1014.2985 471.87311 4278190080
183.78201 322.50729 1022.6924 4278190080
432.47739 270.50003 491.06564 4278190080
898.62885 297.9899 756.01117 4278190080
470.84305 258.91916 855.40753 4278190080
652.50122 936.17523 608.44775 4278190080
28.173365 470.27823 911.07733 4278190080
872.03833 73.613602 479.59677 4278190080
0.2853713 687.44818 843.23834 4278190080
136.70976 203.35332 881.47101 4278190080
216.76068 272.91718 871.76947 4278190080
688.63379 456.69919 170.27678 4278190080
687.32617 889.17657 440.77679 4278190080
154.3918 763.80542 738.76666 4278190080
910.40295 210.64847 997.68585 4278190080
741.81049 863.14972 909.86108 4278190080
326.25824 891.32306 356.13928 4278190080
213.3356 739.36139 429.7529 4278190080
692.93237 739.64679 93.201057 4278190080
512.17072 876.35657 296.55438 4278190080
369.64169 69.117218 569.47156 4278190080
217.41116 757.75098 2.1707487 4278190080
387.68796 421.07715 891.34735 4278190080
828.46472 575.46893 631.15277 4278190080
543.23145 461.87192 841.80121 4278190080
516.9173 179.6824 680.95093 4278190080
402.77835 505.94067 548.27399 4278190080
758.91766 719.27625 263.63541 4278190080
164.67053 388.20862 1003.2822 4278190080
257.87158 900.37933 855.63873 4278190080
554.42596 246.021 924.75598 4278190080
99.897499 463.43216 658.50696 4278190080
102.06825 851.12012 55.584118 4278190080
993.41559 655.58484 631.0531 4278190080
600.56836 174.8163 68.924995 4278190080
418.36957 691.73358 248.60741 4278190080
75.320488 70.51194 754.5481 4278190080
623.59448 829.42957 449.82434 4278190080
887.22992 994.1001 838.03296 4278190080
866.51208 227.97168 714.41229 4278190080
698.15088 782.39764 960.43329 4278190080
598.9068 882.2951 399.86545 4278190080
233.41377 984.3634 226.98557 4278190080
288.99789 953.77899 882.57043 4278190080
920.05096 530.34729 33.38673 4278190080
988.97595 948.71686 725.1203 4278190080
213.58337 0.037359238 795.63226 4278190080
968.13147 623.63184 601.06183 4278190080
393.95578 486.86176 571.16193 4278190080
207.98875 329.37387 799.13361 4278190080
922.40106 3.5247202 557.53125 4278190080
858.83435 602.43152 415.82639 4278190080
234.69978 835.84534 376.18976 4278190080
461.68536 100.8432 305.96872 4278190080
320.2558 1020.8942 836.31604 4278190080
353.64252 985.87012 761.0329 4278190080
54.762833 175.45352 761.07025 4278190080
850.39508 119.58496 360.70212 4278190080
427.45691 513.54077 847.5639 4278190080
998.61884 721.52948 152.93774 4278190080
773.75244 619.93054 156.46246 4278190080
307.28369 454.76486 758.89398 4278190080
723.11005 689.46466 570.73932 4278190080
75.29982 127.14999 671.58252 4278190080
381.26855 447.40576 668.47668 4278190080
193.58458 801.04828 630.3468 4278190080
954.61749 855.8111 805.80035 4278190080
691.68774 682.20624 925.38531 4278190080
28.389875 85.663132 414.92606 4278190080
875.95374 60.281971 112.45554 4278190080
4.8914981 834.03442 732.38605 4278190080
161.35396 117.31812 163.15092 4278190080
920.24799 840.42816 852.61554 4278190080
466.98727 915.72797 979.76556 4278190080
114.56979 272.99655 403.17133 4278190080
783.04645 466.58112 180.2196 4278190080
389.39328 397.19861 12.030736 4278190080
171.19363 64.886368 694.23694 4278190080
72.578934 93.276245 779.90009 4278190080
487.50497 969.22998 840.18207 4278190080
599.96051 974.12152 650.21649 4278190080
308.34659 111.47546 767.53461 4278190080
471.49753 7.7234254 583.96277 4278190080
300.11307 474.71069 475.69077 4278190080
255.87862 589.28046 748.68732 4278190080
659.04993 348.32697 191.26842 4278190080
839.26953 737.72021 588.46704 4278190080
851.30029 908.91388 653.35339 4278190080
521.53723 981.4928 746.62964 4278190080
277.43732 444.99777 691.85962 4278190080
93.619354 20.958305 641.98114 4278190080
743.83582 329.3049 753.4566 4278190080
487.37042 800.80243 761.18005 4278190080
47.333172 76.915482 211.89073 4278190080
523.02393 332.7941 801.1712 4278190080
247.71123 991.84406 125.49817 4278190080
438.97964 807.11359 863.21838 4278190080
3.4466667 634.41388 748.13226 4278190080
656.80005 131.9511 705.62512 4278190080
379.42972 409.3884 126.62289 4278190080
47.289352 503.00775 147.58119 4278190080
689.27051 222.84358 476.88608 4278190080
418.72708 710.21399 253.68849 4278190080
155.90712 757.54718 330.60397 4278190080
367.79785 256.57111 663.39807 4278190080
144.96906 504.28232 631.24213 4278190080
270.46722 943.26196 414.35568 4278190080
109.68565 946.70862 24.769547 4278190080
857.81793 579.50867 156.72064 4278190080
539.44305 958.93842 566.10901 4278190080
666.06592 1006.2277 45.116791 4278190080
813.64709 671.49823 267.96039 4278190080
266.5332 66.225334 978.17438 4278190080
520.22168 222.13246 711.72156 4278190080
850.82568 589.9303 968.2926 4278190080
490.22372 734.89935 448.57492 4278190080
97.465843 1005.3666 367.83688 4278190080
511.82153 91.052238 290.5455 4278190080
536.59106 948.87018 870.0542 4278190080
693.31171 464.3132 804.99255 4278190080
235.42075 106.37911 787.22034 4278190080
280.53754 920.02625 434.71857 4278190080
548.49792 162.5594 500.94391 4278190080
502.67227 682.78107 723.07635 4278190080
190.39381 509.60675 289.00665 4278190080
134.68643 999.83051 1023.906 4278190080
583.26135 73.296326 1005.2726 4278190080
951.09827 585.11786 72.32486 4278190080
217.64375 97.708931 1021.195 4278190080
63.697937 791.02063 461.50824 4278190080
868.69049 2.4413967 567.88733 4278190080
631.91083 282.97894 463.91357 4278190080
42.629395 831.47687 626.47296 4278190080
543.5733 310.14914 285.25406 4278190080
242.64964 500.54294 794.86084 4278190080
531.65631 635.22937 770.69128 4278190080
531.56232 194.49075 843.98761 4278190080
512.83496 121.589 405.10547 4278190080
585.15979 339.23276 502.81442 4278190080
582.35486 402.93069 269.83505 4278190080
19.863075 247.6212 272.27646 4278190080
587.75043 879.53204 555.25537 4278190080
27.664001 922.16144 362.73224 4278190080
654.13696 441.73471 672.88141 4278190080
939.39105 684.38434 149.42435 4278190080
710.25189 192.04066 784.65375 4278190080
456.94318 723.60297 979.14447 4278190080
276.93082 212.43793 76.733482 4278190080
682.03632 797.59772 415.96625 4278190080
160.85069 355.95258 818.89691 4278190080
430.68576 375.81564 42.518127 4278190080
702.96222 963.5661 922.05017 4278190080
234.21761 991.2301 820.21161 4278190080
596.94983 621.36707 237.94632 4278190080
245.83125 536.75812 922.33069 4278190080
395.25558 223.00998 90.371361 4278190080
155.90932 679.95312 813.97437 4278190080
111.0538 956.88397 2.4122734 4278190080
187.78728 614.92023 800.01001 4278190080
603.75354 775.77094 131.96257 4278190080
398.65045 182.4567 507.77823 4278190080
441.16858 885.41888 447.3443 4278190080
339.21875 95.63652 414.57437 4278190080
135.43033 692.58636 11.941422 4278190080
373.37665 938.4176 548.69952 4278190080
271.70737 309.67322 771.70953 4278190080
362.0787 465.58255 427.66266 4278190080
152.05305 576.63635 360.54663 4278190080
154.46533 764.42365 975.46686 4278190080
954.47534 344.17715 727.23779 4278190080
62.437904 742.82758 909.69452 4278190080
570.21613 159.99615 771.1134 4278190080
1017.5604 499.2149 866.74994 4278190080
408.13477 634.6452 535.3363 4278190080
420.0762 1008.0219 449.75394 4278190080
968.77576 255.72925 759.42712 4278190080
716.48523 617.80798 201.00969 4278190080
120.1479 769.86102 777.64606 4278190080
480.69452 924.32635 518.06964 4278190080
432.16141 854.8017 862.24683 4278190080
135.3992 917.23956 581.0744 4278190080
21.09371 463.45572 741.07056 4278190080
792.20715 457.01611 216.28545 4278190080
634.95709 865.15088 850.93066 4278190080
146.29338 261.22708 834.95258 4278190080
596.0473 206.00282 66.681808 4278190080
331.47446 922.48804 684.48975 4278190080
532.48413 18.635967 430.35077 4278190080
286.13019 499.33051 330.67712 4278190080
804.19983 931.49188 161.47879 4278190080
642.44666 42.891094 54.718376 4278190080
199.52104 63.984802 518.17407 4278190080
940.59161 856.19196 975.19019 4278190080
132.87703 467.14899 816.34106 4278190080
983.80768 613.44238 53.56818 4278190080
794.76025 185.48969 259.57101 4278190080
861.44208 516.96417 158.05907 4278190080
521.93188 25.448311 176.69502 4278190080
952.28265 311.57849 676.02551 4278190080
258.95975 91.778358 583.5174 4278190080
420.43854 734.22504 626.40851 4278190080
