# .PCD v0.7 - Point Cloud Data file format
VERSION 0.7
FIELDS x y z rgb
SIZE 4 4 4 4
TYPE F F F U
COUNT 1 1 1 1
WIDTH 1175
HEIGHT 1
VIEWPOINT 0 0 0 1 0 0 0
POINTS 1175
DATA ascii
816.82935 769.38086 812.03595 4278190080
704.31268 849.32819 847.76343 4278190080
747.71838 844.38934 615.26031 4278190080
717.08276 159.01984 446.21344 4278190080
397.2988 136.92047 62.510529 4278190080
75.613907 695.44977 599.7085 4278190080
449.82953 91.374893 470.26651 4278190080
979.84058 356.89108 642.24933 4278190080
703.45056 481.48682 728.05902 4278190080
580.69812 937.41547 583.97168 4278190080
328.27194 730.24481 329.35254 4278190080
116.30791 410.5575 154.68073 4278190080
964.07135 134.27589 999.07007 4278190080
555.33167 851.35864 134.08994 4278190080
1001.5451 224.65744 271.01041 4278190080
40.055634 300.27133 966.46014 4278190080
639.7641 750.10089 33.835037 4278190080
86.030624 705.94147 390.7261 4278190080
728.27991 385.392 872.21289 4278190080
432.33896 966.09009 785.62842 4278190080
1016.3106 270.36206 491.87323 4278190080
321.66318 386.66995 902.43073 4278190080
476.3439 326.7413 12.706615 4278190080
451.414 882.07294 864.06525 4278190080
585.50397 859.61804 64.722694 4278190080
856.51434 899.67371 364.99405 4278190080
798.97449 515.43781 91.09491 4278190080
832.80951 601.46844 797.03638 4278190080
199.53564 305.74838 158.42836 4278190080
47.748562 738.08734 100.51846 4278190080
833.37695 730.39795 370.88052 4278190080
301.25018 28.061131 757.55048 4278190080
179.68091 504.40503 60.291756 4278190080
192.38753 955.81903 942.36469 4278190080
32.452782 517.323 777.98279 4278190080
97.175484 349.83734 653.65643 4278190080
462.16953 124.81184 145.09427 4278190080
553.2644 957.6214 746.56268 4278190080
326.30078 133.15701 28.311077 4278190080
484.72913 180.90558 766.39838 4278190080
585.24762 1014.2825 472.79636 4278190080
956.12811 291.53271 500.85748 4278190080
689.67859 471.21362 1005.2625 4278190080
749.97034 663.60114 937.0816 4278190080
668.33502 696.05396 430.40457 4278190080
422.31781 793.22943 780.24194 4278190080
51.974258 231.39894 905.05377 4278190080
197.06853 784.66339 838.67511 4278190080
943.63123 86.964149 971.83215 4278190080
971.94232 571.6933 128.73772 4278190080
714.3407 132.94089 119.02026 4278190080
163.13707 65.068993 410.55298 4278190080
663.99457 754.74756 881.7666 4278190080
645.25708 480.7179 521.3678 4278190080
558.33862 125.05293 193.42172 4278190080
988.74323 547.37073 986.65112 4278190080
744.98511 599.34497 194.05008 4278190080
626.03888 796.41351 978.71344 4278190080
440.71402 716.04474 41.677605 4278190080
388.54614 663.98706 613.37091 4278190080
517.28387 354.32779 746.31177 4278190080
636.30414 517.46484 811.38074 4278190080
22.857136 157.4594 542.12836 4278190080
904.62378 802.71649 1022.8463 4278190080
401.99155 337.05511 123.89916 4278190080
595.41327 301.79834 671.2699 4278190080
558.06439 22.783459 246.6149 4278190080
752.1145 648.82233 19.028418 4278190080
706.82794 65.536354 735.07318 4278190080
748.50555 454.08252 375.06024 4278190080
337.87643 971.36639 729.388 4278190080
60.188202 583.67053 222.85287 4278190080
871.56897 606.52765 380.31226 4278190080
389.6973 487.15143 159.02873 4278190080
388.54352 889.14301 496.08386 4278190080
512.44269 460.55624 797.8822 4278190080
159.71259 1018.6207 820.66565 4278190080
406.32748 746.73511 445.48798 4278190080
425.3559 429.56308 511.02432 4278190080
136.42906 154.0686 965.10687 4278190080
511.48932 491.94504 912.47321 4278190080
216.87733 552.13324 472.14377 4278190080
439.73022 399.70221 54.671429 4278190080
820.04248 789.39948 541.82288 4278190080
979.07123 153.94302 406.96585 4278190080
451.15506 666.38574 867.52209 4278190080
225.03725 826.09827 862.1427 4278190080
21.702883 208.42577 584.87787 4278190080
467.19086 633.78168 1014.4409 4278190080
978.21521 770.21075 144.50952 4278190080
919.32202 257.70004 636.45453 4278190080
807.79529 474.57739 164.5878 4278190080
255.93904 914.30762 564.28998 4278190080
310.61047 710.3501 329.68951 4278190080
852.43335 665.42126 483.63254 4278190080
235.39915 92.576355 126.01825 4278190080
78.921234 317.61359 952.11658 4278190080
941.06396 339.31647 136.54231 4278190080
501.9418 806.50732 770.32397 4278190080
492.38272 760.72253 516.53473 4278190080
636.89221 656.04462 774.23474 4278190080
249.3468 439.83987 224.81215 4278190080
413.9346 695.77887 115.11974 4278190080
978.22461 1006.3893 825.46979 4278190080
283.91412 834.82269 466.89111 4278190080
767.54663 46.221848 559.46747 4278190080
893.56488 125.14308 877.08105 4278190080
821.68146 42.207043 192.39754 4278190080
958.22375 544.14886 998.90491 4278190080
704.54773 12.531571 735.62744 4278190080
197.08247 649.42383 367.67203 4278190080
971.3172 898.77063 807.5119 4278190080
172.12936 288.70523 479.2908 4278190080
287.24911 242.92982 461.68015 4278190080
88.718925 526.84393 272.50284 4278190080
555.61005 270.39059 318.72467 4278190080
91.077492 139.95549 443.86777 4278190080
968.15857 961.63696 486.0748 4278190080
136.55609 895.86072 6.2236595 4278190080
111.46098 576.40845 18.75523 4278190080
847.08838 773.49091 668.17902 4278190080
190.76044 720.80817 542.94965 4278190080
998.27234 892.93756 831.65491 4278190080
453.56311 156.18665 50.584698 4278190080
915.24329 244.90556 577.42865 4278190080
163.74611 800.51562 847.81921 4278190080
482.47079 891.59308 987.77472 4278190080
926.33856 835.75165 925.41168 4278190080
388.41336 972.30774 797.2724 4278190080
394.63702 59.768692 349.68085 4278190080
413.39224 906.85712 99.171776 4278190080
57.571297 73.617531 819.97992 4278190080
600.52094 47.889854 688.91748 4278190080
408.17584 501.45297 845.10413 4278190080
458.76053 392.69623 66.009689 4278190080
12.189171 556.44232 866.52527 4278190080
860.00842 14.913118 734.11835 4278190080
823.78314 941.25165 545.87 4278190080
725.19476 305.66504 494.17773 4278190080
498.46716 700.30206 553.94641 4278190080
848.14801 89.694305 436.80353 4278190080
947.31976 147.26561 510.42105 4278190080
743.29974 747.78656 558.31091 4278190080
408.21719 131.9624 35.763866 4278190080
229.32132 590.72296 428.46008 4278190080
295.33099 602.91211 984.9024 4278190080
137.85629 438.9205 999.81555 4278190080
871.97467 238.70363 917.0672 4278190080
393.84467 963.89838 198.73225 4278190080
888.0224 438.36557 899.0343 4278190080
417.96881 262.51355 988.72864 4278190080
854.77234 185.83334 111.99422 4278190080
341.19339 929.13306 859.78076 4278190080
899.50427 313.35025 991.74316 4278190080
935.26813 542.67157 558.46613 4278190080
339.72824 838.00256 137.37822 4278190080
300.63068 975.85889 576.29871 4278190080
276.44623 823.8335 815.00238 4278190080
169.51344 193.67819 754.90076 4278190080
368.2457 57.700588 169.26631 4278190080
243.28001 475.6694 431.77988 4278190080
208.00862 306.44174 617.61322 4278190080
320.00284 647.63513 522.74628 4278190080
155.78363 523.1394 836.09656 4278190080
123.52682 434.40753 354.76813 4278190080
681.99292 774.1358 168.77071 4278190080
819.37115 50.766468 120.62956 4278190080
371.66989 327.21271 944.46307 4278190080
162.67224 496.72614 114.14128 4278190080
917.573 864.97186 171.84187 4278190080
62.839317 84.251854 647.51129 4278190080
494.6192 292.26047 953.953 4278190080
88.23243 612.26331 577.58813 4278190080
610.9787 768.04694 76.727516 4278190080
423.07529 891.57379 511.13507 4278190080
777.84338 549.56671 261.27084 4278190080
946.61414 344.9379 312.03732 4278190080
43.243671 716.60779 639.25 4278190080
987.70679 879.28003 111.97616 4278190080
77.848038 772.85303 976.948 4278190080
249.68991 835.69238 37.19986 4278190080
897.20117 306.31155 329.46033 4278190080
827.15417 394.54398 941.72369 4278190080
380.74231 1005.5227 685.77063 4278190080
457.46982 404.59799 553.34442 4278190080
968.60492 158.44139 78.911148 4278190080
205.87575 81.055504 423.84906 4278190080
517.91309 124.29917 116.45683 4278190080
133.16309 88.005936 995.73688 4278190080
245.13925 165.85397 744.5899 4278190080
198.08725 415.54388 556.28229 4278190080
235.28711 288.74506 862.59381 4278190080
564.74744 91.899254 233.13782 4278190080
482.47113 472.64157 214.66054 4278190080
144.24176 930.11139 619.25854 4278190080
697.58618 874.71631 777.69989 4278190080
776.49731 56.592033 858.75543 4278190080
176.34639 574.50513 983.05457 4278190080
292.80322 707.66821 47.06052 4278190080
264.5401 952.80743 212.91449 4278190080
1009.13 126.8947 628.45837 4278190080
541.41229 362.18182 917.20343 4278190080
380.00613 926.92926 1009.1027 4278190080
613.14392 385.40039 457.74426 4278190080
827.80444 529.64215 363.85565 4278190080
423.06299 203.22835 214.57193 4278190080
176.76291 979.72571 271.16397 4278190080
11.518316 132.07208 845.66907 4278190080
994.57288 424.87531 529.33728 4278190080
17.633427 689.41541 458.14471 4278190080
230.54791 674.54541 585.03943 4278190080
859.00629 191.95772 947.22119 4278190080
752.20972 571.96387 850.15051 4278190080
737.31244 161.10777 211.55087 4278190080
171.05667 988.91223 741.19305 4278190080
534.91229 387.97525 944.42139 4278190080
749.48425 564.73816 900.14709 4278190080
1020.6482 576.25647 8.2191801 4278190080
842.31726 546.82935 433.09448 4278190080
347.65454 564.46277 98.509903 4278190080
805.79926 795.01074 773.05536 4278190080
366.83868 630.01703 965.01306 4278190080
290.05991 358.22675 512.97687 4278190080
116.21037 71.539154 674.08466 4278190080
327.76126 242.59583 638.99689 4278190080
44.9543 777.50812 2.9721565 4278190080
989.37567 502.99237 567.71033 4278190080
865.52277 499.64059 119.96677 4278190080
873.74194 317.95789 666.79614 4278190080
282.83646 665.61243 207.25893 4278190080
381.34637 447.41171 1002.2697 4278190080
130.40169 814.25037 608.28662 4278190080
71.414742 80.310272 966.51337 4278190080
584.3916 196.52065 14.052536 4278190080
234.47629 524.28192 256.64835 4278190080
873.47321 569.23621 10.15649 4278190080
876.44537 534.61188 513.14886 4278190080
420.15564 376.1347 1012.7895 4278190080
540.12244 225.87666 306.74734 4278190080
182.91855 508.71313 972.3598 4278190080
390.17749 890.05951 395.77148 4278190080
368.44711 1020.4612 186.02187 4278190080
976.73376 67.875931 266.33212 4278190080
919.24713 652.26758 462.85278 4278190080
933.29968 886.74384 987.1347 4278190080
165.94804 736.21704 532.37085 4278190080
176.10454 588.66235 42.98278 4278190080
689.25342 1008.8181 419.11746 4278190080
678.04285 524.94043 644.99414 4278190080
984.79022 707.85901 129.70728 4278190080
933.15002 74.036491 1019.7668 4278190080
304.92148 442.48361 1016.228 4278190080
490.94333 395.21738 60.103882 4278190080
757.27545 290.46454 712.37146 4278190080
196.12825 199.76424 575.11523 4278190080
159.26292 365.71228 287.33228 4278190080
691.63379 541.81683 875.99463 4278190080
734.61658 207.07024 860.81268 4278190080
129.73405 885.1131 361.75314 4278190080
774.72821 845.90332 45.612141 4278190080
904.43549 755.05334 119.64863 4278190080
900.20221 35.9748 562.13226 4278190080
892.43018 526.91815 957.34961 4278190080
952.53406 260.1936 223.81416 4278190080
640.90552 456.32187 423.5784 4278190080
192.02075 615.58478 789.29065 4278190080
479.35303 283.2186 307.10748 4278190080
331.34769 1017.8352 514.17773 4278190080
168.16039 123.56924 375.29083 4278190080
529.91351 898.29742 197.19414 4278190080
575.52563 778.73291 952.24744 4278190080
695.17426 654.93512 988.22229 4278190080
233.30652 523.3653 491.14041 4278190080
166.65614 451.89938 751.33405 4278190080
390.47031 68.804878 183.6559 4278190080
814.04871 260.82562 799.24066 4278190080
579.33936 740.17865 58.459274 4278190080
886.4469 47.526367 52.294456 4278190080
376.6246 215.68675 175.86369 4278190080
751.91541 745.60028 50.161133 4278190080
949.10956 297.12592 828.89404 4278190080
877.35699 992.30017 459.82916 4278190080
841.57928 201.60672 983.19452 4278190080
308.7197 368.26288 411.09387 4278190080
36.053715 758.73315 479.89877 4278190080
219.70961 548.78186 740.72443 4278190080
1018.9503 104.12127 456.90308 4278190080
53.409565 990.56812 504.42944 4278190080
105.70402 343.19272 720.11621 4278190080
281.56772 71.108139 441.71643 4278190080
331.72885 1020.2177 738.84235 4278190080
136.62288 873.57471 707.14258 4278190080
596.45209 691.15399 908.74927 4278190080
555.64655 999.87366 253.01216 4278190080
966.74042 11.927401 1011.7454 4278190080
422.63922 231.63701 536.52722 4278190080
139.36362 226.5873 640.6485 4278190080
596.26666 279.99686 607.21661 4278190080
76.696121 385.7009 950.40936 4278190080
796.81232 667.26862 1021.5175 4278190080
214.52875 998.99744 1017.7352 4278190080
953.37109 111.62032 867.30994 4278190080
636.51367 708.07239 534.46393 4278190080
521.26294 239.71895 510.33759 4278190080
774.27515 182.4594 522.26501 4278190080
762.02045 605.09857 753.90204 4278190080
274.5477 744.46222 980.48932 4278190080
915.19623 316.72888 236.48618 4278190080
498.41284 393.42502 622.18707 4278190080
424.82224 166.23734 265.45566 4278190080
422.33972 380.76608 240.45309 4278190080
416.07495 310.13721 352.07343 4278190080
259.38486 946.65088 36.145805 4278190080
793.84875 443.91385 275.86475 4278190080
280.18637 194.18898 458.32413 4278190080
802.45135 956.20947 39.422737 4278190080
532.35339 206.75716 783.88495 4278190080
488.84268 97.953362 76.613846 4278190080
725.32886 596.36621 470.03888 4278190080
323.51593 1021.1884 636.27618 4278190080
588.97156 419.52817 1017.0423 4278190080
829.42468 835.60309 303.17947 4278190080
157.49808 70.987961 225.83037 4278190080
193.64389 864.83673 669.7442 4278190080
469.50864 121.0231 863.93317 4278190080
927.83276 923.47449 796.14264 4278190080
967.25549 431.82785 1002.8998 4278190080
727.14044 920.67053 76.853149 4278190080
803.75433 621.99939 673.21936 4278190080
249.79318 945.51532 670.40778 4278190080
886.0694 510.48691 65.935966 4278190080
879.11169 315.91156 901.53906 4278190080
158.29115 473.40967 972.52704 4278190080
384.12152 667.05353 813.36377 4278190080
29.865742 112.56217 934.38684 4278190080
893.79895 16.394941 833.86133 4278190080
665.94159 983.65045 241.68919 4278190080
644.84137 686.79089 138.35976 4278190080
721.69452 466.54523 760.35919 4278190080
370.91388 716.33838 681.87451 4278190080
17.321676 578.40778 168.36142 4278190080
83.257645 433.51944 484.27298 4278190080
984.79669 591.81061 957.68262 4278190080
933.32373 975.93213 600.73621 4278190080
722.6875 1005.7979 713.29834 4278190080
633.07434 875.5968 729.6933 4278190080
442.9357 517.53839 689.34375 4278190080
684.62494 138.37971 352.13464 4278190080
822.98468 860.07422 818.67987 4278190080
559.34381 206.9881 511.01828 4278190080
217.21835 224.30978 65.426056 4278190080
385.57977 307.56741 498.9455 4278190080
869.85278 268.36414 66.756104 4278190080
803.5354 177.68788 18.688223 4278190080
380.27158 900.37537 0.48608637 4278190080
69.569939 509.44977 876.08289 4278190080
799.26324 952.3855 369.62125 4278190080
464.60699 613.01038 508.00098 4278190080
816.74164 411.99506 344.0752 4278190080
611.42151 971.33887 551.06329 4278190080
98.439789 164.55724 775.37311 4278190080
163.86584 550.13702 58.940506 4278190080
662.81134 395.98975 327.30466 4278190080
729.56744 175.52516 504.99252 4278190080
748.25568 555.79675 381.36792 4278190080
748.74176 625.3667 890.81769 4278190080
600.82465 400.62994 819.20319 4278190080
970.44586 865.23694 408.21356 4278190080
454.44687 657.97852 820.20862 4278190080
798.52203 245.40005 767.54749 4278190080
325.58536 343.83984 932.10474 4278190080
76.958435 507.70569 458.2417 4278190080
135.89894 146.51704 854.23145 4278190080
463.20358 876.08453 5.7566328 4278190080
968.19611 600.34021 561.55341 4278190080
325.56406 325.08194 162.92007 4278190080
192.38173 925.90662 563.54999 4278190080
1011.5849 872.35248 404.78693 4278190080
395.79843 302.79935 38.765465 4278190080
192.00703 77.321388 284.16553 4278190080
959.5545 402.90674 628.00537 4278190080
867.65924 479.86517 111.71107 4278190080
301.90094 615.7641 258.22812 4278190080
132.13242 54.967693 110.31263 4278190080
137.88904 1023.1638 710.65283 4278190080
699.44244 324.72784 11.734755 4278190080
862.36249 517.10956 937.64136 4278190080
401.91251 504.69449 785.99384 4278190080
806.69946 900.49292 64.793152 4278190080
845.4649 68.499954 142.11453 4278190080
105.63043 4.0544734 545.0213 4278190080
733.6358 871.71368 0.88644695 4278190080
845.34686 149.61465 616.65057 4278190080
79.575012 281.74707 671.61823 4278190080
189.88763 419.63611 670.78204 4278190080
900.54047 95.078537 995.50989 4278190080
912.27521 957.44104 488.61951 4278190080
825.91656 335.35358 993.31396 4278190080
587.91034 118.053 869.80688 4278190080
652.70349 963.51788 938.30682 4278190080
794.81805 45.148338 942.36133 4278190080
315.83932 778.78412 790.07501 4278190080
316.72577 600.13104 939.6897 4278190080
933.37634 679.70605 197.43674 4278190080
580.99457 869.59369 617.07281 4278190080
227.77664 746.13416 712.15137 4278190080
199.28656 634.4093 645.59241 4278190080
687.90607 436.32587 980.94598 4278190080
657.22003 0.23624563 74.998985 4278190080
503.02692 652.93976 14.516895 4278190080
417.33377 423.75781 59.665234 4278190080
335.6951 739.59717 838.4494 4278190080
101.77013 32.322945 414.58041 4278190080
17.459797 965.69928 70.286438 4278190080
214.89653 522.69385 939.88013 4278190080
831.96936 750.47052 662.01422 4278190080
520.12073 949.75708 272.42355 4278190080
141.71317 613.66315 708.74945 4278190080
98.659142 246.88316 708.98572 4278190080
173.65813 749.9101 337.92545 4278190080
188.17503 143.24387 761.68329 4278190080
247.84026 478.93896 477.28046 4278190080
62.289635 580.70911 509.60339 4278190080
476.87003 598.16888 451.30267 4278190080
547.15649 813.06543 973.99652 4278190080
463.03659 621.03479 700.46704 4278190080
101.05082 117.15553 626.22412 4278190080
373.4744 258.86868 215.88728 4278190080
58.223835 357.52783 462.77045 4278190080
767.20953 531.18597 188.68054 4278190080
81.134987 719.36102 331.92441 4278190080
842.81824 967.20123 810.86334 4278190080
296.09872 5.490891 367.57245 4278190080
805.70209 482.36093 965.74133 4278190080
233.00478 5.517406 754.80676 4278190080
183.00133 468.55399 351.84155 4278190080
883.46838 569.6048 468.99707 4278190080
485.69254 943.07922 727.86578 4278190080
701.57983 1001.303 61.393604 4278190080
140.35027 744.51257 592.57959 4278190080
329.03082 825.64758 287.94058 4278190080
660.9552 644.46582 231.14182 4278190080
447.8186 940.56451 236.63271 4278190080
815.39105 722.26666 718.99365 4278190080
757.13239 955.27142 724.51105 4278190080
487.93915 114.27274 169.06505 4278190080
839.7807 997.74115 738.66986 4278190080
284.77777 459.43365 657.74908 4278190080
1012.6436 137.01349 635.05212 4278190080
50.037144 277.36374 355.56467 4278190080
642.6167 606.39453 157.21222 4278190080
930.55731 243.34978 801.67804 4278190080
137.69911 691.16833 718.24255 4278190080
374.33182 482.55942 416.50922 4278190080
69.325462 215.6918 347.78064 4278190080
793.83649 703.63092 462.05338 4278190080
962.90155 519.41162 435.79449 4278190080
677.57141 804.18939 895.22815 4278190080
311.32047 792.83295 8.241641 4278190080
946.37256 842.87012 285.60538 4278190080
277.93726 461.48682 891.99994 4278190080
435.14948 368.0441 111.34972 4278190080
212.82753 505.74323 802.51807 4278190080
931.07013 880.07501 261.07748 4278190080
323.57932 949.40051 476.76929 4278190080
671.35999 719.237 156.40024 4278190080
109.41332 658.13855 675.81189 4278190080
545.20782 311.70999 456.00128 4278190080
416.43597 623.03046 224.83424 4278190080
424.67761 545.40302 43.704334 4278190080
710.28302 823.34027 505.19116 4278190080
578.28296 234.48976 873.23523 4278190080
689.63269 447.31729 354.97845 4278190080
468.15076 354.38739 211.0535 4278190080
729.22827 677.96674 136.45399 4278190080
181.99753 325.32669 855.69104 4278190080
338.39777 434.73999 489.82959 4278190080
1014.2097 979.94781 801.53955 4278190080
446.21091 372.38379 400.57004 4278190080
671.04517 797.0614 945.97308 4278190080
714.74951 483.34442 745.31335 4278190080
195.94064 37.627388 979.8031 4278190080
45.175892 727.26007 403.12042 4278190080
400.15436 171.41081 757.50781 4278190080
611.20789 900.63904 411.47455 4278190080
747.66187 58.636581 736.80121 4278190080
579.35284 397.03433 147.54121 4278190080
45.182446 387.24399 103.48904 4278190080
846.72198 833.4549 475.87283 4278190080
223.29204 480.50006 248.93427 4278190080
145.26511 171.24954 732.27869 4278190080
890.57843 367.19019 769.90607 4278190080
846.38159 412.36609 473.16614 4278190080
225.502 812.52045 644.57697 4278190080
983.00983 399.7283 521.216 4278190080
370.48434 123.39015 579.8526 4278190080
83.285576 702.74304 976.8869 4278190080
230.8268 747.92548 340.13092 4278190080
334.31583 570.64746 149.5858 4278190080
810.18866 793.93951 630.08588 4278190080
35.12294 939.20459 801.33539 4278190080
767.40161 805.78308 144.5256 4278190080
513.30774 628.16467 556.89166 4278190080
986.47388 853.66663 345.41211 4278190080
607.05078 812.67645 745.14044 4278190080
104.26682 159.16081 868.53058 4278190080
684.11938 242.44638 547.27356 4278190080
637.00635 473.27319 271.19904 4278190080
977.13721 807.58899 841.8465 4278190080
102.72304 593.77771 611.78601 4278190080
732.8089 628.90063 526.9906 4278190080
510.14432 372.30228 308.77368 4278190080
654.66992 885.60999 936.93835 4278190080
187.56158 848.08386 766.60498 4278190080
532.97369 431.13467 555.28143 4278190080
254.11414 535.40149 714.44226 4278190080
98.644699 195.52089 956.88861 4278190080
645.91827 832.52722 406.1618 4278190080
917.11731 785.66443 189.75082 4278190080
734.96381 888.38751 783.5285 4278190080
322.74982 597.19641 388.42917 4278190080
849.74048 83.340698 760.73145 4278190080
134.51413 738.01062 622.34143 4278190080
47.452454 925.5722 446.42529 4278190080
814.05743 434.54593 877.55994 4278190080
345.33887 688.66003 388.96143 4278190080
35.781097 787.30475 584.4823 4278190080
992.66974 409.22302 393.00952 4278190080
374.83154 302.34033 154.67397 4278190080
564.5824 13.304165 19.061459 4278190080
324.1109 336.05399 616.25787 4278190080
712.54004 161.79445 699.59857 4278190080
449.27148 296.30856 413.60916 4278190080
47.612915 343.76102 315.18137 4278190080
494.03821 133.81845 749.72729 4278190080
347.59814 479.15732 414.38733 4278190080
736.55957 514.93842 177.69208 4278190080
297.04187 483.60812 586.9151 4278190080
690.05139 858.4397 889.25543 4278190080
844.72534 399.02203 902.55963 4278190080
863.7868 723.13293 214.6136 4278190080
456.04468 411.67297 376.40805 4278190080
131.64322 860.94446 672.71661 4278190080
545.25238 908.55737 1016.4777 4278190080
860.43372 378.59558 126.2961 4278190080
586.16101 726.19373 605.45343 4278190080
1000.5483 438.7533 96.391823 4278190080
154.24042 735.79517 579.99994 4278190080
741.15552 401.84656 414.43964 4278190080
606.41095 222.5719 813.46167 4278190080
484.97058 62.358715 512.5946 4278190080
699.58417 518.40338 924.26758 4278190080
51.992226 650.04657 761.21204 4278190080
724.70886 171.29897 645.76941 4278190080
717.18652 7.7327123 0.36501265 4278190080
843.4826 593.89374 726.55872 4278190080
424.93604 570.44208 141.31203 4278190080
521.32782 724.6825 877.10718 4278190080
77.327797 441.83801 254.95372 4278190080
491.76743 24.248964 477.5256 4278190080
281.2291 509.21954 539.88434 4278190080
793.82367 184.80371 34.287708 4278190080
694.09125 236.79594 684.33429 4278190080
431.30331 961.50476 855.6333 4278190080
53.072746 654.69128 863.36597 4278190080
53.437759 474.17389 433.2597 4278190080
779.99652 899.10992 1003.7018 4278190080
921.30853 396.43777 704.38428 4278190080
774.41571 473.76556 122.22228 4278190080
5.3694077 965.53302 146.47125 4278190080
482.89502 222.7621 655.6908 4278190080
1022.7794 1016.5858 840.49451 4278190080
33.067066 686.67706 53.290432 4278190080
717.40137 93.98037 1014.7952 4278190080
549.03467 147.05312 645.48651 4278190080
388.40063 200.49088 95.660423 4278190080
821.66034 980.48737 994.77032 4278190080
801.36212 877.7959 367.20813 4278190080
481.74643 628.21161 840.97369 4278190080
603.96869 633.58099 782.50671 4278190080
750.43994 92.476013 1005.2688 4278190080
382.13074 91.255371 997.85461 4278190080
198.62523 124.32243 660.53168 4278190080
251.91566 841.72382 754.51202 4278190080
242.71089 366.75845 901.56512 4278190080
888.19739 755.15912 78.056023 4278190080
983.85785 552.81946 34.543404 4278190080
954.62817 330.18158 912.33929 4278190080
297.8363 811.92804 516.5509 4278190080
114.81002 391.89673 126.13187 4278190080
897.31671 118.33669 218.60789 4278190080
878.58551 500.46741 309.86325 4278190080
852.44012 699.09265 434.1857 4278190080
488.97177 951.0083 251.9095 4278190080
219.4838 169.71921 618.66797 4278190080
97.048927 33.916615 349.82706 4278190080
175.10495 1017.7745 902.64648 4278190080
209.64836 948.40265 208.82808 4278190080
97.987656 222.23894 1020.7561 4278190080
614.53851 337.04895 388.65283 4278190080
740.67041 210.36569 506.98953 4278190080
959.27832 64.951218 1007.457 4278190080
245.14157 917.39136 682.54962 4278190080
679.32727 382.3631 609.55792 4278190080
931.23676 601.84686 779.2771 4278190080
525.90472 698.89581 813.19373 4278190080
875.73175 874.00079 806.9682 4278190080
754.37823 59.649139 731.37079 4278190080
963.20636 157.6368 953.60974 4278190080
959.96246 772.17535 266.65872 4278190080
324.6153 488.84576 477.02441 4278190080
831.6048 424.12405 541.97565 4278190080
815.06177 669.26562 435.36694 4278190080
473.61136 324.5929 817.73004 4278190080
59.169273 231.82965 395.57693 4278190080
838.44641 757.73438 70.472771 4278190080
627.64014 609.46613 944.47357 4278190080
410.60831 339.84442 1004.1227 4278190080
117.97913 279.05078 137.75948 4278190080
47.588879 215.01323 909.93481 4278190080
314.24759 539.62854 374.78058 4278190080
791.27197 347.23334 798.9046 4278190080
309.24762 138.29509 444.17026 4278190080
744.61456 611.90643 768.76312 4278190080
538.3446 671.07574 1000.5928 4278190080
933.92157 485.52213 734.32721 4278190080
1004.3943 89.162254 319.79333 4278190080
924.86786 499.77057 659.63776 4278190080
904.9906 617.74969 938.68854 4278190080
18.750057 665.33856 129.70175 4278190080
928.68488 979.58618 669.33026 4278190080
279.46545 746.85815 1016.5636 4278190080
54.370075 32.105778 130.85869 4278190080
498.54031 776.72034 742.76514 4278190080
243.30347 291.06497 389.84088 4278190080
219.89627 200.98654 875.36298 4278190080
954.22345 181.38087 964.52527 4278190080
250.01678 82.248772 440.29584 4278190080
909.65454 987.23932 34.045521 4278190080
824.34308 1005.9894 699.38409 4278190080
954.0448 910.67426 654.97028 4278190080
599.37506 166.13972 377.82843 4278190080
591.93866 220.5098 409.9342 4278190080
722.79736 719.05011 162.65456 4278190080
441.56253 962.35358 453.71951 4278190080
831.40338 158.24986 654.70605 4278190080
682.76642 88.47332 836.08691 4278190080
623.29163 338.49011 918.33569 4278190080
39.587471 224.14465 881.57507 4278190080
73.632996 24.487728 863.56445 4278190080
773.01709 978.53253 750.23871 4278190080
403.98734 553.90765 916.37848 4278190080
781.8158 121.84631 112.88825 4278190080
167.74997 844.64368 831.93835 4278190080
330.40451 262.20621 770.29199 4278190080
784.12402 69.609596 928.54187 4278190080
414.83011 752.37598 1017.0152 4278190080
226.91704 351.66763 331.50528 4278190080
121.25275 391.2551 555.64996 4278190080
1002.8278 464.88809 580.1377 4278190080
842.39227 213.90518 534.67023 4278190080
568.63098 617.89252 64.577843 4278190080
461.00943 375.70831 186.42415 4278190080
573.89771 543.45825 7.0678372 4278190080
381.83606 873.86279 269.27405 4278190080
128.12805 633.98682 338.88364 4278190080
32.669903 24.816936 67.259621 4278190080
25.685074 251.73398 418.92725 4278190080
357.19037 372.98672 810.18237 4278190080
912.84027 351.81451 251.07045 4278190080
468.97797 170.20679 464.97565 4278190080
1003.6482 738.83777 58.868168 4278190080
44.226032 175.8472 434.57648 4278190080
230.65019 749.74487 978.03473 4278190080
237.71802 107.58095 827.89752 4278190080
506.99207 235.709 437.88437 4278190080
845.87567 268.37891 462.70129 4278190080
913.13531 294.06396 714.4353 4278190080
308.06256 651.25433 63.422005 4278190080
94.244919 540.0946 415.23654 4278190080
345.31537 1009.0726 585.4433 4278190080
810.29102 988.72076 300.28107 4278190080
869.15918 8.9468222 476.12827 4278190080
279.73566 239.59702 201.87314 4278190080
233.77039 477.31503 309.4541 4278190080
37.667919 984.30707 545.16309 4278190080
475.55228 806.1828 813.54199 4278190080
938.2536 695.31812 83.605965 4278190080
628.68884 1003.3807 734.86029 4278190080
692.11084 73.625587 250.95494 4278190080
83.347404 418.94098 236.02754 4278190080
668.79071 205.23198 200.74832 4278190080
969.07178 50.391163 209.69514 4278190080
421.20004 330.1268 449.29214 4278190080
623.07318 563.89722 926.60718 4278190080
932.52728 601.56512 886.91431 4278190080
453.69037 53.117405 669.09705 4278190080
243.23236 991.37097 340.41519 4278190080
326.83832 596.05988 319.79584 4278190080
37.698624 264.17072 393.42145 4278190080
288.65356 347.51813 812.36243 4278190080
524.68109 1016.3088 1017.5944 4278190080
725.42944 961.38062 43.985546 4278190080
935.12457 358.58069 374.11237 4278190080
360.41675 981.65387 938.00958 4278190080
263.02393 890.18115 515.57471 4278190080
125.93822 319.87155 568.69208 4278190080
795.03528 563.10388 536.06311 4278190080
111.45047 889.9422 108.12294 4278190080
431.24631 927.64087 372.29367 4278190080
824.66772 192.2944 719.81177 4278190080
613.03015 716.97552 712.12067 4278190080
606.62451 418.40494 649.50128 4278190080
650.61011 329.52951 1008.082 4278190080
0.72244549 689.94623 965.73584 4278190080
938.73199 952.97015 831.91705 4278190080
430.3067 54.908386 127.78856 4278190080
998.99878 849.94366 690.89246 4278190080
511.06186 961.39417 556.83466 4278190080
619.18481 368.64047 460.47552 4278190080
991.47845 169.30823 652.76996 4278190080
687.29028 782.33838 345.74542 4278190080
375.41092 364.96292 764.15039 4278190080
0.91219616 1015.573 69.679871 4278190080
1008.9941 1016.2955 759.6261 4278190080
950.73004 931.02747 688.59625 4278190080
758.64703 337.33417 743.5047 4278190080
886.43561 312.33295 569.44836 4278190080
553.32806 823.39484 506.8425 4278190080
86.16275 418.57962 875.48297 4278190080
546.63831 386.05807 20.791203 4278190080
175.4082 49.348358 803.12958 4278190080
521.15363 424.75928 144.0925 4278190080
261.30399 425.67148 135.66551 4278190080
330.98386 410.66565 127.96096 4278190080
66.609978 337.39566 34.988422 4278190080
755.20624 72.042717 372.32257 4278190080
474.71094 958.47833 684.65552 4278190080
20.159279 487.8064 484.05032 4278190080
527.00177 573.96918 902.62994 4278190080
378.48477 96.607437 264.68802 4278190080
399.27597 272.01566 314.03638 4278190080
178.40555 793.16925 738.79565 4278190080
322.49805 30.473276 140.46712 4278190080
458.16357 361.45715 551.13275 4278190080
586.12451 428.06711 888.52844 4278190080
621.11292 159.27338 960.57117 4278190080
993.43555 633.98431 895.0495 4278190080
654.09106 654.14355 358.8559 4278190080
114.14137 157.14537 932.82501 4278190080
1016.7713 535.63013 5.432477 4278190080
257.45932 934.90607 277.44812 4278190080
571.49573 89.31163 46.617397 4278190080
286.29138 411.80969 77.090675 4278190080
426.75848 869.97327 438.54782 4278190080
977.89124 432.09778 866.61493 4278190080
842.41968 29.210709 1.8883076 4278190080
778.99084 1022.6462 635.87262 4278190080
650.04028 652.73724 266.0162 4278190080
1008.8962 766.87866 423.16156 4278190080
917.72119 759.64996 958.79169 4278190080
923.15369 1017.1093 869.69775 4278190080
176.60181 564.60498 959.0094 4278190080
223.21921 850.89636 346.81909 4278190080
300.30988 253.65486 192.79233 4278190080
738.85767 207.54613 624.89008 4278190080
581.47266 25.965801 654.10083 4278190080
583.36096 804.9566 652.74701 4278190080
195.23355 430.99692 281.48431 4278190080
461.24976 415.89307 24.362932 4278190080
884.41132 309.61429 784.01288 4278190080
819.203 208.76797 777.12213 4278190080
664.90076 385.36978 317.72714 4278190080
599.91016 608.58899 144.6235 4278190080
946.72925 908.89886 398.27838 4278190080
115.52158 623.75659 605.82452 4278190080
740.41168 181.22919 631.79028 4278190080
370.51248 764.59015 412.74692 4278190080
1023.2595 959.82367 843.74384 4278190080
280.7438 397.07343 235.6369 4278190080
305.10672 257.48471 545.25122 4278190080
65.119598 52.687714 754.01917 4278190080
842.24176 717.5885 115.38896 4278190080
135.96889 293.49866 723.97797 4278190080
280.59238 216.22791 608.87683 4278190080
678.87079 331.74948 208.63339 4278190080
260.69525 48.161152 389.86258 4278190080
892.4856 418.67361 130.45271 4278190080
281.23248 417.93311 66.276382 4278190080
100.97631 698.67694 463.34979 4278190080
336.61322 1003.7836 720.83453 4278190080
881.86444 44.903252 773.52222 4278190080
611.88361 887.14502 467.11072 4278190080
727.27258 1023.1139 760.60938 4278190080
427.25052 279.70627 976.83728 4278190080
12.127343 958.57703 284.58673 4278190080
220.76074 195.27229 332.74789 4278190080
610.62329 63.757858 751.42151 4278190080
741.07605 344.99036 145.35463 4278190080
807.35242 445.96664 844.03156 4278190080
246.70221 782.5799 823.81519 4278190080
967.53674 640.44427 868.71844 4278190080
717.05896 228.3279 731.86346 4278190080
160.16966 955.60046 730.97729 4278190080
920.77899 358.85098 1010.6836 4278190080
873.61627 370.9783 945.26062 4278190080
134.203 591.73907 116.53291 4278190080
466.9509 178.36237 180.29077 4278190080
194.37239 919.43842 525.28113 4278190080
339.72702 702.79083 971.24774 4278190080
159.75858 949.49304 729.82764 4278190080
983.57379 893.02972 346.27194 4278190080
828.29224 586.08868 574.59985 4278190080
536.1557 746.25836 506.20029 4278190080
243.133 643.03735 865.05127 4278190080
229.81659 492.65363 212.02959 4278190080
151.07721 626.85663 803.76862 4278190080
267.61011 69.807526 982.13104 4278190080
447.90088 264.17993 877.5694 4278190080
973.18201 603.90698 556.36023 4278190080
920.42975 763.66553 481.85327 4278190080
626.25739 723.23932 350.883 4278190080
972.52936 527.53156 936.97168 4278190080
523.12921 39.687206 659.23004 4278190080
5.3295088 282.82019 278.26743 4278190080
870.3808 512.63678 770.92108 4278190080
58.410378 663.71399 373.77771 4278190080
862.17902 931.3241 443.58524 4278190080
820.31006 355.22498 707.7652 4278190080
673.87946 304.40698 287.67212 4278190080
206.23969 200.83675 27.337652 4278190080
688.09296 827.09418 750.57697 4278190080
14.97596 775.62354 254.10849 4278190080
951.94769 274.75272 293.79568 4278190080
587.17773 280.08224 576.61591 4278190080
865.44519 126.46302 65.252693 4278190080
612.36627 184.8734 728.96667 4278190080
986.14398 23.052422 636.29077 4278190080
405.72922 843.36249 991.51581 4278190080
89.494385 493.24191 271.92276 4278190080
377.1665 699.48163 472.75952 4278190080
404.50415 363.57455 275.85367 4278190080
131.08112 378.55054 27.477196 4278190080
385.18961 306.4982 302.22992 4278190080
678.98529 893.6759 582.31213 4278190080
231.60121 735.12109 708.77521 4278190080
296.85391 323.48737 893.64856 4278190080
1.8205943 285.63132 916.70099 4278190080
638.11139 691.36053 736.06348 4278190080
605.6272 780.85492 205.30539 4278190080
877.54993 134.02142 904.78699 4278190080
326.30945 538.52557 244.36156 4278190080
602.16315 669.60669 622.91211 4278190080
629.64032 30.796303 929.41028 4278190080
931.87024 709.78162 799.08618 4278190080
490.1824 941.38281 510.20731 4278190080
174.9576 214.23672 833.6947 4278190080
44.606186 216.05731 95.326012 4278190080
961.30719 854.1687 786.68658 4278190080
673.37067 435.7959 543.5415 4278190080
878.67603 289.34583 677.56293 4278190080
759.46301 615.65527 192.0885 4278190080
1003.8246 193.81842 861.69519 4278190080
602.73669 823.45874 892.49152 4278190080
508.14697 731.32898 578.27313 4278190080
283.23318 197.51141 495.65591 4278190080
793.44049 372.46902 709.89264 4278190080
603.13519 417.0752 925.94995 4278190080
698.46118 354.38239 756.11865 4278190080
461.14777 3.753046 167.91455 4278190080
1004.6893 882.42908 457.26038 4278190080
658.25214 617.89215 48.915672 4278190080
850.34064 597.71674 242.7341 4278190080
688.03583 176.45343 42.192844 4278190080
556.52734 684.6004 773.52185 4278190080
110.80045 967.83356 971.03326 4278190080
606.45636 737.27405 319.50229 4278190080
292.349 316.40927 736.57745 4278190080
194.29898 1014.8705 66.959869 4278190080
950.41766 452.01822 70.712914 4278190080
94.332199 432.70746 953.14203 4278190080
551.59259 66.959602 547.03412 4278190080
600.50824 917.30023 120.75087 4278190080
843.24237 581.33612 297.20428 4278190080
885.43518 113.86343 981.80469 4278190080
634.95703 224.66388 925.63824 4278190080
581.9903 831.12024 638.91235 4278190080
901.49255 99.469261 955.32159 4278190080
614.07007 293.76825 946.19208 4278190080
681.02991 220.18588 374.21027 4278190080
751.74286 314.5181 806.91772 4278190080
680.88483 866.11066 873.87732 4278190080
203.91898 442.61893 767.17755 4278190080
324.66983 261.8613 324.51367 4278190080
621.87415 123.29649 438.37711 4278190080
579.67883 758.25354 663.04102 4278190080
481.31708 316.24384 470.16122 4278190080
96.229431 193.73643 569.63049 4278190080
27.551031 807.80646 863.39874 4278190080
973.7431 464.83643 59.584625 4278190080
323.95337 192.57925 374.10272 4278190080
106.87108 873.46411 216.21339 4278190080
980.74841 53.383053 658.83234 4278190080
723.92596 378.05289 920.6936 4278190080
24.43965 999.927 19.990116 4278190080
462.81677 555.60583 778.24365 4278190080
101.85775 12.922934 70.487503 4278190080
572.01898 109.15237 264.22394 4278190080
117.64949 136.7034 48.030418 4278190080
981.04822 86.44648 512.86682 4278190080
16.632858 410.39984 705.44611 4278190080
390.73557 517.27094 554.91016 4278190080
606.94897 474.01932 608.29321 4278190080
241.7813 173.94528 986.34613 4278190080
138.47491 198.38493 962.27313 4278190080
158.46503 661.20172 493.87897 4278190080
936.70868 763.05945 506.80191 4278190080
1007.1962 311.07843 615.95428 4278190080
247.42012 428.72794 752.65765 4278190080
295.45053 385.77615 839.10413 4278190080
808.31738 402.40903 225.50398 4278190080
489.76346 793.14459 742.7749 4278190080
20.673622 376.09354 192.7942 4278190080
628.96686 617.87482 366.7395 4278190080
591.31293 756.34973 565.12445 4278190080
529.58606 914.81476 202.32613 4278190080
1023.4651 827.5235 965.38556 4278190080
506.26697 810.71967 252.464 4278190080
98.221252 34.139786 681.19196 4278190080
850.87891 329.59033 42.968086 4278190080
665.98309 113.90771 445.37711 4278190080
891.48706 603.67114 214.52168 4278190080
610.26196 624.34479 590.61523 4278190080
803.05615 229.31163 184.49007 4278190080
145.79567 820.62457 940.83984 4278190080
710.9201 326.21066 831.6546 4278190080
913.24622 325.67572 635.1781 4278190080
854.63184 831.94269 421.89774 4278190080
83.095818 930.16394 456.03751 4278190080
764.28772 757.04285 785.62787 4278190080
807.25586 399.02594 899.53558 4278190080
228.63293 266.513 479.20673 4278190080
443.15463 876.77496 79.551506 4278190080
9.7698536 655.83112 308.86313 4278190080
194.25992 801.62683 105.48771 4278190080
111.09975 488.54691 431.69836 4278190080
942.75433 377.79315 757.37408 4278190080
553.93243 208.42496 565.31683 4278190080
975.83014 291.52078 471.48077 4278190080
407.86768 31.808519 204.52364 4278190080
169.49551 839.06433 603.54956 4278190080
45.031075 43.697289 870.06256 4278190080
524.23779 486.8519 722.83752 4278190080
603.78931 496.62177 354.6687 4278190080
912.6524 690.88171 132.2955 4278190080
1018.1401 801.98145 620.84241 4278190080
425.83853 720.73578 998.63556 4278190080
159.21262 250.66821 183.06052 4278190080
724.52942 202.49838 474.5813 4278190080
172.01019 610.36603 506.3898 4278190080
376.53381 779.86157 321.45416 4278190080
980.08344 824.89264 365.15146 4278190080
826.146 325.13043 852.00336 4278190080
524.98352 928.91974 324.62512 4278190080
879.65222 817.57214 1015.5068 4278190080
1011.9478 811.71228 793.48822 4278190080
608.79016 213.55083 490.22403 4278190080
583.42572 372.76346 740.89227 4278190080
766.48621 73.292877 943.39062 4278190080
217.0675 245.30307 529.75665 4278190080
723.45734 621.83691 285.61826 4278190080
20.911465 577.92029 86.510902 4278190080
386.0629 380.06628 411.64136 4278190080
214.06627 905.0498 316.5611 4278190080
538.69141 760.70209 110.13325 4278190080
530.19818 748.64978 921.84558 4278190080
299.68643 333.43997 111.39639 4278190080
789.91046 916.86566 484.15985 4278190080
506.80273 659.35187 557.4527 4278190080
426.19336 876.41937 802.7558 4278190080
955.95007 575.87671 400.59268 4278190080
217.56831 596.78815 978.513 4278190080
304.07922 982.85107 334.57928 4278190080
715.72058 172.91734 215.6291 4278190080
8.2816315 711.6087 976.33118 4278190080
118.41488 217.80692 700.98096 4278190080
16.260441 517.49335 10.420942 4278190080
127.65683 283.40384 927.28662 4278190080
611.81665 790.2066 562.63849 4278190080
145.26938 192.39996 415.05789 4278190080
948.02515 124.35001 990.93457 4278190080
324.61783 341.9183 563.72272 4278190080
279.13083 645.9975 522.57379 4278190080
613.71008 337.71808 695.49115 4278190080
829.33917 345.99969 383.09988 4278190080
781.67035 464.41458 600.9068 4278190080
458.65137 480.67502 94.400162 4278190080
469.0723 608.33185 377.80402 4278190080
372.35892 196.14853 144.0106 4278190080
934.99738 341.41791 336.41055 4278190080
326.05527 265.44305 460.76056 4278190080
292.98987 590.06091 802.67889 4278190080
856.71259 869.19171 424.67642 4278190080
355.28641 458.90182 762.39447 4278190080
26.777546 264.24103 84.394203 4278190080
409.87741 21.911396 548.80878 4278190080
1010.7842 480.56274 5.4838319 4278190080
81.18438 949.63507 613.81567 4278190080
458.9884 297.99396 809.96423 4278190080
602.99896 208.99136 127.38213 4278190080
939.40955 535.04663 392.8252 4278190080
376.1701 828.0365 982.88611 4278190080
154.84901 660.74908 828.07782 4278190080
579.52545 1016.0355 262.97968 4278190080
317.91992 18.813034 527.2207 4278190080
402.31412 428.69046 549.13208 4278190080
951.12292 415.47467 5.6948352 4278190080
956.60675 496.65906 955.3299 4278190080
546.42249 955.64746 229.32385 4278190080
332.38669 534.64642 438.31522 4278190080
459.7688 450.05597 973.36188 4278190080
852.59399 826.22607 777.39838 4278190080
811.4801 981.07513 414.14746 4278190080
615.55792 536.60052 406.18295 4278190080
878.5376 854.52045 424.99597 4278190080
381.75827 232.83459 853.6864 4278190080
930.89038 159.95752 245.1611 4278190080
936.58521 92.564293 741.82013 4278190080
867.9151 638.98676 673.46759 4278190080
73.238945 971.37341 184.11401 4278190080
511.55417 407.14221 634.16998 4278190080
460.91602 235.73622 436.39609 4278190080
214.31439 23.216312 393.47122 4278190080
628.46185 638.77423 930.07178 4278190080
10.644781 493.31183 760.59222 4278190080
435.64075 875.07013 993.42682 4278190080
265.32718 781.96051 129.38434 4278190080
510.48828 694.54565 221.94862 4278190080
228.30843 538.46075 860.93536 4278190080
901.776 611.69971 808.30878 4278190080
61.890038 99.253883 191.45102 4278190080
696.06006 560.16992 427.18723 4278190080
108.45613 774.48431 450.40353 4278190080
501.92734 378.94614 65.177788 4278190080
407.99908 389.59091 558.48962 4278190080
144.59131 825.23169 409.55975 4278190080
114.01811 66.558853 167.52025 4278190080
243.40245 577.04712 862.06592 4278190080
465.35107 805.35559 376.5267 4278190080
302.28644 683.13159 988.22644 4278190080
86.595245 745.02161 63.480301 4278190080
278.04626 417.08167 623.65021 4278190080
705.23352 525.53778 374.13452 4278190080
131.63704 3.4651332 753.08063 4278190080
196.81483 411.46423 118.67158 4278190080
755.30444 556.05554 943.90326 4278190080
140.86423 670.07367 1010.4621 4278190080
308.38446 913.47607 563.50922 4278190080
146.45039 354.82718 344.86481 4278190080
522.97711 657.11359 3.9963918 4278190080
487.20352 743.70886 749.01801 4278190080
550.68384 1021.7551 142.09967 4278190080
150.33405 702.98859 667.63745 4278190080
524.46857 834.62567 671.1026 4278190080
253.54921 7.440485 58.566814 4278190080
372.22076 762.74493 614.62231 4278190080
292.12402 903.60919 260.69598 4278190080
278.58612 187.99364 150.17207 4278190080
842.0954 334.44403 504.99924 4278190080
162.96019 857.42114 138.11287 4278190080
166.95657 320.62466 881.82172 4278190080
915.97461 871.30847 879.57684 4278190080
34.074257 1021.6425 558.56549 4278190080
701.71173 522.11108 369.19113 4278190080
348.8143 775.66028 376.63159 4278190080
407.38113 123.88107 115.37656 4278190080
1022.0035 416.0051 1018.9857 4278190080
258.69946 694.59125 182.97937 4278190080
408.87152 512.68658 517.4234 4278190080
913.87079 675.64679 350.84454 4278190080
27.983641 842.60339 671.46924 4278190080
909.80536 734.57794 518.77771 4278190080
765.3822 768.65222 516.42023 4278190080
299.94766 446.36395 14.531336 4278190080
669.13879 795.17822 790.19165 4278190080
21.770397 178.55937 914.07269 4278190080
137.14694 176.56284 306.07779 4278190080
132.13268 435.2623 1000.669 4278190080
315.11203 844.13385 489.35565 4278190080
832.53546 734.00458 141.00244 4278190080
159.37999 761.98822 983.60583 4278190080
830.84918 647.79358 694.18378 4278190080
325.62692 389.17581 438.83603 4278190080
842.04718 689.12347 885.19995 4278190080
856.57849 334.2623 656.37823 4278190080
622.77014 356.03268 834.93762 4278190080
512.84283 493.17963 1011.5004 4278190080
818.92065 625.31232 422.76273 4278190080
795.58966 940.42432 242.89655 4278190080
260.94531 748.95978 976.90112 4278190080
401.94775 908.33978 714.8894 4278190080
361.55359 715.18896 338.68298 4278190080
31.737391 16.815908 727.85883 4278190080
470.57343 858.8631 392.9823 4278190080
331.77341 691.44159 727.24457 4278190080
988.15161 290.2117 59.277275 4278190080
799.08923 803.05457 552.45691 4278190080
786.58966 597.97516 153.76921 4278190080
185.35239 369.56485 70.193558 4278190080
428.24893 630.51013 819.15332 4278190080
381.15009 8.4579115 703.4931 4278190080
72.039482 370.01151 394.6821 4278190080
410.72247 401.7489 411.49802 4278190080
114.5813 872.32233 246.3611 4278190080
507.5636 180.0957 937.80267 4278190080
210.8082 144.24733 204.01439 4278190080
270.08548 943.33655 1007.0689 4278190080
822.54236 705.92621 581.04413 4278190080
976.31158 891.27863 950.60895 4278190080
22.505156 295.52756 557.11908 4278190080
841.65851 676.67767 565.57703 4278190080
521.15161 748.71716 935.5885 4278190080
915.83374 135.43962 313.3374 4278190080
303.33176 250.02092 161.65971 4278190080
549.69287 757.58453 341.75543 4278190080
463.49554 968.3927 486.00275 4278190080
667.50995 214.47821 405.33932 4278190080
650.57886 13.020588 87.265533 4278190080
207.62296 989.33221 978.54413 4278190080
134.2319 1011.8373 250.0717 4278190080
691.35101 829.49585 926.74939 4278190080
232.92799 326.64746 651.46649 4278190080
144.51649 218.4812 786.90613 4278190080
457.85388 521.81299 12.927038 4278190080
619.51361 47.50581 770.51154 4278190080
961.26904 511.00134 714.9043 4278190080
423.27179 154.51126 929.38251 4278190080
828.61108 805.09009 942.40308 4278190080
915.87665 1012.7131 907.73529 4278190080
870.42078 122.94496 895.57263 4278190080
96.492477 814.29596 701.06848 4278190080
1023.2418 23.223944 3.71592 4278190080
650.70831 167.74045 222.19713 4278190080
413.61444 625.59436 744.01007 4278190080
426.5415 221.10794 791.51587 4278190080
173.05305 158.37697 278.51724 4278190080
887.95734 581.64874 433.0285 4278190080
793.33984 386.25983 214.11861 4278190080
711.74292 278.13644 202.83168 4278190080
595.47821 124.55722 325.77664 4278190080
467.05078 221.0497 116.07259 4278190080
144.11925 220.29152 139.29654 4278190080
147.83517 870.99988 307.03699 4278190080
370.03229 260.61432 932.63129 4278190080
90.042366 687.15582 129.73924 4278190080
881.55829 860.20886 288.11621 4278190080
136.07549 724.1662 869.76495 4278190080
569.104 493.50604 232.02478 4278190080
783.2226 181.24895 510.16122 4278190080
986.05426 776.72711 634.71844 4278190080
287.8309 219.77792 855.76813 4278190080
403.9035 363.89716 52.059669 4278190080
543.20001 511.73233 923.05951 4278190080
850.237 881.76465 159.67383 4278190080
758.86829 971.80701 846.82965 4278190080
888.60754 829.36523 683.03851 4278190080
152.72377 965.44073 383.20468 4278190080
1022.4887 510.54474 876.71069 4278190080
230.5135 269.76733 33.959652 4278190080
740.67474 231.82159 810.68677 4278190080
351.39319 519.65253 6.4646983 4278190080
183.16133 923.55597 370.36188 4278190080
235.22101 442.75601 882.09418 4278190080
134.28053 268.99301 739.85883 4278190080
293.95438 3.8613157 687.66583 4278190080
