# .PCD v0.7 - Point Cloud Data file format
VERSION 0.7
FIELDS x y z rgb
SIZE 4 4 4 4
TYPE F F F U
COUNT 1 1 1 1
WIDTH 1175
HEIGHT 1
VIEWPOINT 0 0 0 1 0 0 0
POINTS 1175
DATA ascii
679.92383 1011.2293 226.36368 4278190080
379.05011 825.42804 579.99939 4278190080
409.21689 697.47217 455.93799 4278190080
448.44189 164.72864 187.41324 4278190080
82.450325 521.65387 73.477509 4278190080
867.61157 300.48386 220.51187 4278190080
258.78464 76.359047 446.64108 4278190080
384.65518 298.19144 821.36768 4278190080
804.4162 258.71249 168.82866 4278190080
654.94824 35.500298 780.05896 4278190080
804.07269 715.42413 767.28827 4278190080
6.436367 70.474258 568.71631 4278190080
586.43579 479.69116 242.18848 4278190080
18.373741 928.13306 406.91711 4278190080
205.78699 1010.5834 928.57098 4278190080
279.2645 854.19495 205.05481 4278190080
499.77637 88.979561 281.41385 4278190080
946.41748 473.63474 579.60529 4278190080
743.7851 254.05092 838.31781 4278190080
912.61377 908.99915 873.81812 4278190080
668.67273 689.07184 565.24225 4278190080
411.961 695.50824 635.71649 4278190080
980.67731 257.944 91.407646 4278190080
198.8658 276.31775 1019.5407 4278190080
605.7829 482.10471 1006.1241 4278190080
510.35388 761.3692 836.31897 4278190080
715.40869 237.14557 925.29852 4278190080
996.82257 159.56303 374.93329 4278190080
552.42786 903.34814 628.98419 4278190080
366.74567 791.96191 513.98334 4278190080
216.56377 436.63467 179.05522 4278190080
781.80603 848.59564 874.56348 4278190080
393.52249 805.27301 108.50745 4278190080
484.93015 1004.1388 384.8252 4278190080
480.47083 585.92169 866.92987 4278190080
462.59491 72.275597 604.29913 4278190080
274.91388 787.68433 841.4447 4278190080
176.21243 760.50684 1001.0077 4278190080
551.14569 288.93472 880.3559 4278190080
156.12991 655.68042 648.31781 4278190080
670.11328 872.2442 60.952484 4278190080
849.16852 630.05017 909.54816 4278190080
699.73193 1023.5727 690.82111 4278190080
808.23938 484.50284 670.9599 4278190080
169.06459 964.97369 232.88162 4278190080
11.994488 403.56857 305.15723 4278190080
616.29358 678.48248 68.841522 4278190080
433.73828 854.69489 829.34839 4278190080
410.746 381.84061 94.283119 4278190080
267.10187 537.97052 749.9635 4278190080
915.41968 184.0838 598.2077 4278190080
976.37219 9.2522984 204.25789 4278190080
861.92029 708.98425 203.83058 4278190080
528.74146 493.22366 688.33344 4278190080
175.70137 662.28827 629.30713 4278190080
408.58298 674.28271 8.8756809 4278190080
713.74023 266.57632 687.35815 4278190080
782.58173 700.31458 518.05304 4278190080
587.93011 87.0606 899.89362 4278190080
682.21326 354.16248 413.86417 4278190080
408.17676 245.58215 597.94794 4278190080
1006.3845 197.95433 607.20026 4278190080
186.64236 35.874649 292.18451 4278190080
390.47296 564.61609 785.4082 4278190080
54.80637 740.31744 423.69644 4278190080
684.11346 124.90046 73.979172 4278190080
692.98914 838.64069 340.55551 4278190080
356.34729 597.22241 16.870108 4278190080
874.40033 161.15251 103.9307 4278190080
750.29395 843.36578 458.09317 4278190080
140.15814 227.54253 703.67535 4278190080
738.10608 209.927 901.62964 4278190080
321.30637 396.56937 937.50433 4278190080
613.49084 787.0423 478.12042 4278190080
374.89905 841.84869 194.43788 4278190080
798.59546 501.96216 319.33835 4278190080
872.57465 170.95131 133.979 4278190080
189.13016 527.29858 731.20142 4278190080
206.00026 377.69894 892.35394 4278190080
309.93097 103.9929 711.71967 4278190080
768.02417 244.15105 939.26221 4278190080
447.69949 982.25714 125.18922 4278190080
325.32916 279.56351 521.75861 4278190080
238.83347 893.05438 284.8009 4278190080
716.95386 243.95343 102.6496 4278190080
911.39178 18.548918 604.61176 4278190080
206.7301 891.1236 775.56305 4278190080
340.70911 56.253731 278.86166 4278190080
47.910515 262.254 656.56061 4278190080
940.26447 572.185 760.55353 4278190080
627.98413 316.20911 1004.7046 4278190080
543.24634 763.90863 962.96173 4278190080
668.43555 65.237755 218.52522 4278190080
166.19414 304.07123 87.579597 4278190080
450.99503 1021.0251 331.53302 4278190080
553.64465 908.41687 350.08194 4278190080
134.25639 91.146957 217.20552 4278190080
909.81946 431.85605 273.45926 4278190080
164.68112 479.76657 535.71326 4278190080
821.24176 396.03101 83.898224 4278190080
557.79523 0.015142441 400.10733 4278190080
538.49982 543.26147 140.01595 4278190080
477.46152 187.69702 205.25369 4278190080
695.98676 353.89117 509.32492 4278190080
783.56635 804.88623 506.35001 4278190080
91.099358 334.53082 390.76688 4278190080
441.1813 468.78723 481.91382 4278190080
658.38684 354.60669 913.7699 4278190080
931.84607 519.28778 369.53644 4278190080
443.55933 316.52954 765.56744 4278190080
527.45758 874.32477 765.58264 4278190080
927.56488 388.82458 284.84409 4278190080
43.580841 866.28613 472.54111 4278190080
248.83453 538.27283 826.43225 4278190080
758.15942 297.83917 607.31848 4278190080
240.50945 388.93854 941.8493 4278190080
631.27631 830.11981 386.63654 4278190080
89.190132 464.50668 741.24323 4278190080
1002.96 372.35275 236.53105 4278190080
348.49646 815.91211 553.06061 4278190080
90.063934 319.36966 403.38538 4278190080
855.64655 222.93456 792.20996 4278190080
116.49063 266.51538 634.49609 4278190080
589.03174 515.34991 148.76891 4278190080
391.46402 249.50937 446.60806 4278190080
998.78253 490.01883 835.54663 4278190080
916.63184 97.295128 641.66644 4278190080
279.26837 186.48526 82.173103 4278190080
1020.5116 165.44527 454.52585 4278190080
233.04266 513.94171 246.43796 4278190080
786.10327 604.00568 565.80762 4278190080
165.48862 435.65222 788.74213 4278190080
957.69861 552.14282 31.257538 4278190080
568.19464 117.17459 546.60748 4278190080
716.96356 508.63861 796.11682 4278190080
139.57164 483.42114 262.13565 4278190080
975.11823 376.05298 359.43076 4278190080
592.78467 655.32135 545.91602 4278190080
674.95776 651.83295 711.36133 4278190080
105.48365 884.87561 201.30304 4278190080
351.9216 646.97888 805.30872 4278190080
917.72919 812.46747 216.96092 4278190080
682.47137 746.16608 769.10376 4278190080
713.72888 290.36075 886.27832 4278190080
236.33635 1007.3243 370.91696 4278190080
8.4531765 122.89595 854.33807 4278190080
270.58881 74.014191 206.39107 4278190080
630.01959 666.79889 861.7124 4278190080
151.93561 317.75665 489.54538 4278190080
863.29694 423.24033 350.42099 4278190080
40.59996 775.16193 997.39984 4278190080
845.90869 668.89111 785.86737 4278190080
38.869587 327.36249 508.03345 4278190080
807.97333 17.091375 798.39417 4278190080
670.25171 253.42773 781.71851 4278190080
17.168663 261.88092 904.61444 4278190080
871.50677 532.46973 978.6286 4278190080
53.897823 138.4893 621.42749 4278190080
915.61023 290.42493 939.18414 4278190080
381.15561 129.72183 338.42447 4278190080
731.5766 170.32179 89.58638 4278190080
704.97644 1016.2305 758.47748 4278190080
466.84381 31.100046 61.839985 4278190080
974.87726 839.07336 78.931358 4278190080
749.27142 485.32507 332.3591 4278190080
506.98993 502.49374 594.23999 4278190080
387.60434 350.00052 102.70971 4278190080
342.23297 403.89835 241.19901 4278190080
963.66046 295.50858 531.6239 4278190080
878.8446 676.66418 661.34576 4278190080
193.2691 384.24075 831.66754 4278190080
282.8555 65.217224 823.89801 4278190080
17.332991 532.06104 854.99805 4278190080
79.172974 482.93829 670.07141 4278190080
158.10434 208.20973 131.39653 4278190080
490.46341 715.19965 633.89026 4278190080
60.703415 78.804016 983.89081 4278190080
163.41313 421.03699 363.78912 4278190080
404.61215 360.69748 659.29767 4278190080
936.23608 215.5421 311.96185 4278190080
573.58185 408.81119 696.20264 4278190080
381.24936 691.66669 761.41986 4278190080
181.14737 708.99969 269.4809 4278190080
12.145412 788.17267 752.41919 4278190080
682.21686 946.27698 960.62891 4278190080
813.6134 412.74042 651.82861 4278190080
423.50366 473.44382 730.63263 4278190080
383.39444 636.85693 127.6696 4278190080
747.18353 17.469093 488.36707 4278190080
382.48126 953.70514 703.90918 4278190080
694.44312 503.28699 88.72036 4278190080
366.64572 884.53632 780.38702 4278190080
104.06558 41.683701 465.38672 4278190080
373.54648 53.829113 229.55937 4278190080
101.96568 736.04596 151.83635 4278190080
38.594608 525.65936 564.57678 4278190080
690.42322 949.16302 14.020577 4278190080
397.05582 308.55743 650.8775 4278190080
524.7254 31.741001 668.34662 4278190080
1013.0925 414.22226 598.05176 4278190080
693.00165 84.665359 77.338753 4278190080
781.72198 451.3111 961.87512 4278190080
538.10907 555.37671 1003.5588 4278190080
1003.4958 928.92316 33.387909 4278190080
209.05513 6.8888307 769.4339 4278190080
360.89148 45.48344 271.09323 4278190080
925.4682 735.90662 196.25621 4278190080
939.48883 108.96246 504.81366 4278190080
566.36633 633.68787 536.55463 4278190080
210.71295 622.78033 950.77692 4278190080
808.76471 291.78198 11.442269 4278190080
886.10352 49.50399 462.75336 4278190080
823.97858 587.61304 1018.1301 4278190080
803.53735 567.10876 923.05322 4278190080
836.92529 776.16394 929.94202 4278190080
582.35919 113.0554 975.42548 4278190080
853.45239 14.523626 687.33209 4278190080
25.708599 954.01245 796.29456 4278190080
530.52228 496.37878 405.98245 4278190080
43.076912 707.09174 4.7627988 4278190080
993.85382 491.85648 296.5448 4278190080
1005.2961 353.95996 346.04877 4278190080
444.04944 153.93855 933.6618 4278190080
438.1795 957.47595 476.7706 4278190080
337.2327 770.40125 228.93454 4278190080
243.17474 328.76041 341.98993 4278190080
194.60022 158.21278 356.51355 4278190080
881.93231 183.92139 286.526 4278190080
654.22693 714.44366 782.90479 4278190080
36.209354 757.52057 465.99649 4278190080
40.972153 727.37439 957.85297 4278190080
337.51694 708.67047 287.81293 4278190080
683.56573 128.71991 441.75146 4278190080
593.22754 566.89941 375.22742 4278190080
45.998154 904.13208 121.62865 4278190080
274.93268 123.30685 450.38904 4278190080
616.92261 317.90704 608.60181 4278190080
973.43616 175.83939 792.52319 4278190080
235.96216 830.06628 482.96683 4278190080
1018.8669 866.27563 216.48738 4278190080
460.8634 907.2478 943.86176 4278190080
394.71637 220.76476 628.53223 4278190080
682.5293 904.33044 757.25208 4278190080
100.28077 473.55801 300.15152 4278190080
475.50818 519.55615 180.28362 4278190080
597.13684 794.48883 303.59045 4278190080
23.525877 387.41147 621.4975 4278190080
632.12769 336.84766 797.33691 4278190080
400.65091 572.80981 603.4032 4278190080
883.61774 567.67676 445.67886 4278190080
76.105118 4.5401444 328.92667 4278190080
1019.9669 399.2565 549.69141 4278190080
624.49908 57.785809 430.02188 4278190080
357.75116 158.06659 903.5799 4278190080
657.90265 633.57477 399.13608 4278190080
838.18628 206.71161 169.62494 4278190080
117.77676 230.23749 557.03644 4278190080
739.27429 862.36517 893.88409 4278190080
512.61121 239.01608 442.69388 4278190080
92.014412 98.63382 1010.3706 4278190080
537.6933 174.73894 1014.9108 4278190080
866.61993 170.7058 390.16727 4278190080
392.31134 795.2049 447.95309 4278190080
822.33325 128.95604 606.01965 4278190080
701.91315 786.8587 215.59444 4278190080
77.049217 601.04498 422.30603 4278190080
246.67415 718.82178 652.54352 4278190080
803.71057 434.09607 490.90869 4278190080
673.59467 946.70728 729.9248 4278190080
92.288513 14.72167 828.55859 4278190080
78.659126 552.41492 1003.2975 4278190080
69.569878 395.03488 150.00334 4278190080
459.73715 787.34625 945.20819 4278190080
907.69025 585.67944 50.164238 4278190080
489.7099 263.59259 837.02295 4278190080
705.30432 340.64182 414.06796 4278190080
103.61037 587.31598 108.88973 4278190080
756.15387 367.02655 542.98578 4278190080
223.06259 16.621178 465.69305 4278190080
952.98737 108.90969 480.4147 4278190080
757.54596 187.56882 8.8296585 4278190080
736.84351 257.1387 403.86453 4278190080
886.84686 716.87585 167.21075 4278190080
808.05505 600.56604 752.8902 4278190080
858.2193 66.275955 1016.4828 4278190080
671.24225 771.58026 333.12463 4278190080
61.310219 875.19067 920.44061 4278190080
170.19995 607.34454 263.46713 4278190080
713.18573 830.40717 280.08832 4278190080
154.87878 759.39453 388.99802 4278190080
635.29352 492.94052 576.56683 4278190080
644.12317 205.78403 833.70551 4278190080
23.987698 68.630898 526.58136 4278190080
191.19846 876.68597 103.14743 4278190080
944.08868 710.90527 169.42339 4278190080
936.57147 358.14755 941.00366 4278190080
245.69611 419.45776 792.19434 4278190080
142.13672 589.65771 375.53885 4278190080
405.60385 278.84344 181.946 4278190080
685.6922 433.72223 941.34052 4278190080
50.690193 45.015743 410.28104 4278190080
627.25702 689.13892 616.06506 4278190080
436.96255 713.12659 684.69598 4278190080
963.54388 904.32507 537.38196 4278190080
42.691334 824.41376 224.28722 4278190080
212.11472 736.98523 582.43475 4278190080
129.11839 982.68134 1001.8925 4278190080
921.31268 100.81805 567.55023 4278190080
272.85156 506.42191 846.39368 4278190080
454.79758 168.11409 256.11591 4278190080
372.13809 218.80428 301.13165 4278190080
782.41913 846.06128 990.27057 4278190080
374.48419 259.02383 679.39716 4278190080
35.180145 198.56775 559.72223 4278190080
572.56207 241.25909 360.13599 4278190080
796.8493 453.37381 73.121201 4278190080
355.28406 582.49219 31.802532 4278190080
333.17657 479.8049 132.62057 4278190080
900.72681 752.65649 639.04248 4278190080
723.12048 183.45406 807.15656 4278190080
979.23639 555.59216 1.9608531 4278190080
256.36804 314.01126 848.02216 4278190080
222.63863 688.49542 83.046005 4278190080
902.03583 723.6756 281.61377 4278190080
437.75806 272.23767 522.87286 4278190080
797.89404 45.08696 976.24664 4278190080
871.01526 400.371 534.73889 4278190080
902.81775 733.54761 1014.5438 4278190080
11.438343 610.27441 743.20026 4278190080
650.48083 309.39487 926.6543 4278190080
433.63739 264.63126 458.24646 4278190080
435.59827 520.99933 772.25769 4278190080
259.62042 743.63794 436.75314 4278190080
342.66641 621.67377 136.42873 4278190080
624.28015 35.431793 408.66638 4278190080
123.15303 833.32581 453.75336 4278190080
75.399696 680.34106 854.12439 4278190080
610.13855 559.15881 563.67194 4278190080
600.68237 570.59717 149.94633 4278190080
319.8826 197.07799 459.34119 4278190080
222.53693 630.71539 723.97247 4278190080
680.78339 42.313644 220.97176 4278190080
429.04108 301.93405 964.60968 4278190080
865.79425 644.60046 562.28345 4278190080
1002.223 244.88065 597.71521 4278190080
386.88934 368.03369 407.04108 4278190080
840.6427 443.43338 63.382114 4278190080
670.76703 29.571949 622.54095 4278190080
210.439 630.25427 169.13809 4278190080
360.38535 950.1369 366.21606 4278190080
819.7265 148.67383 996.93146 4278190080
519.69897 829.45721 15.245108 4278190080
740.67072 234.49829 317.17917 4278190080
681.28046 76.292519 961.77966 4278190080
219.56389 54.515469 182.66029 4278190080
817.27911 441.40482 550.69397 4278190080
200.32019 258.04749 994.12738 4278190080
263.7023 928.81458 1023.6993 4278190080
886.24323 115.25355 629.95361 4278190080
31.381323 475.63889 556.09052 4278190080
397.59741 271.36542 704.76434 4278190080
370.52887 791.06439 510.22153 4278190080
385.77399 507.73511 744.71985 4278190080
702.95312 165.01556 821.01233 4278190080
640.73279 384.57944 875.52783 4278190080
823.39307 177.85857 292.93262 4278190080
350.08704 378.17874 550.9801 4278190080
320.21439 641.88104 455.79468 4278190080
319.9137 504.1243 571.04822 4278190080
949.86731 535.50562 22.687088 4278190080
481.95779 933.10303 294.05249 4278190080
162.72214 279.63187 61.116875 4278190080
672.94366 665.40588 568.85199 4278190080
393.66348 344.35898 733.86755 4278190080
190.67581 985.09174 94.447006 4278190080
42.203625 784.4848 272.30557 4278190080
335.13623 110.57186 650.48431 4278190080
886.11633 430.78625 268.36539 4278190080
317.91101 750.69995 772.48969 4278190080
888.95923 676.56726 283.9953 4278190080
911.6463 134.52504 193.0983 4278190080
181.69881 297.24716 472.73019 4278190080
242.81567 970.19086 114.13603 4278190080
811.66766 339.85431 458.49503 4278190080
521.53522 530.53015 419.58679 4278190080
615.98224 572.73376 180.07162 4278190080
888.28778 907.87 290.64346 4278190080
514.77216 769.98633 721.42975 4278190080
783.13751 63.897369 448.12967 4278190080
531.6272 952.85657 100.69692 4278190080
815.6225 840.50293 235.22197 4278190080
1008.7208 1022.2017 532.46912 4278190080
457.45096 241.01738 478.65997 4278190080
571.58698 28.685051 818.51428 4278190080
6.0820298 550.22028 325.04446 4278190080
425.66882 142.20251 897.7782 4278190080
605.74042 6.4903255 781.64819 4278190080
896.38391 521.26245 527.63458 4278190080
593.81366 280.39999 591.53192 4278190080
17.943325 812.02722 520.38855 4278190080
118.64025 603.64966 336.89145 4278190080
353.86221 588.37048 335.09314 4278190080
886.33136 21.821438 576.11053 4278190080
340.99136 593.40845 604.79559 4278190080
135.50566 599.49048 131.01585 4278190080
460.55011 1.1592913 273.21835 4278190080
334.32831 606.89972 279.70868 4278190080
91.97654 479.28366 800.97113 4278190080
619.61108 49.097298 57.371151 4278190080
187.14305 67.040619 869.39832 4278190080
707.53156 185.68088 449.04803 4278190080
20.423016 539.54309 13.418493 4278190080
355.51614 401.87445 35.239929 4278190080
931.62665 742.86578 628.64838 4278190080
512.42224 878.37146 204.13884 4278190080
643.43811 314.92157 205.29813 4278190080
916.65649 649.24988 812.19788 4278190080
172.36516 741.22644 267.48151 4278190080
973.3363 336.83755 316.5788 4278190080
6.7074676 523.98059 383.61945 4278190080
876.10583 207.51218 569.30029 4278190080
301.15384 227.9352 84.843399 4278190080
314.57233 583.45135 486.71783 4278190080
349.81226 491.07803 205.58365 4278190080
978.46063 1003.5002 59.955116 4278190080
158.59947 622.93835 374.87668 4278190080
363.89761 515.59485 0.12657928 4278190080
152.09546 687.95996 741.35303 4278190080
419.57697 637.29633 54.190552 4278190080
736.15576 644.00378 578.17114 4278190080
95.775223 496.10959 785.68329 4278190080
665.0755 797.26343 1013.6185 4278190080
749.91895 87.835754 573.06982 4278190080
212.63676 437.64801 40.147869 4278190080
418.22043 392.10864 19.648136 4278190080
478.17554 550.70813 642.58649 4278190080
853.05225 914.60571 134.18134 4278190080
853.17883 42.701176 822.1413 4278190080
570.5318 462.27814 435.43762 4278190080
624.72235 174.43394 55.441406 4278190080
178.89351 270.20917 551.55096 4278190080
964.57684 935.28467 324.81442 4278190080
954.19531 661.20361 412.65018 4278190080
503.2652 873.84039 850.29816 4278190080
543.41302 268.06079 218.40681 4278190080
563.06116 746.23633 769.11493 4278190080
181.64769 575.28857 659.72064 4278190080
315.82901 404.46738 702.42181 4278190080
113.97034 974.99921 140.69998 4278190080
549.40796 575.72156 315.13391 4278190080
604.84937 754.61505 585.34308 4278190080
132.40038 695.19189 496.62775 4278190080
457.21478 625.38721 133.83136 4278190080
869.86493 104.65241 1007.6718 4278190080
696.16315 648.06549 251.73253 4278190080
914.56995 187.12665 997.96887 4278190080
659.68488 368.77435 549.25745 4278190080
295.40552 684.60339 953.72479 4278190080
997.82733 798.57373 904.724 4278190080
114.52733 323.98169 456.44556 4278190080
429.66125 928.83105 187.06062 4278190080
1015.0043 37.23143 882.2525 4278190080
487.63208 494.44623 483.63974 4278190080
621.46344 340.31116 588.29218 4278190080
605.13513 12.474292 212.35764 4278190080
856.86768 927.04425 399.48428 4278190080
830.83655 562.72913 768.25861 4278190080
356.09396 858.13464 428.862 4278190080
285.81879 831.96204 203.4357 4278190080
166.54277 946.48932 527.41742 4278190080
622.98834 352.1506 432.24844 4278190080
810.04895 343.15491 469.47989 4278190080
668.30145 830.78699 963.92609 4278190080
127.94121 428.2504 280.23727 4278190080
716.2334 9.3855686 292.71155 4278190080
928.591 866.25323 195.7558 4278190080
304.07529 673.08978 758.48492 4278190080
48.333923 5.1837826 592.61957 4278190080
477.19592 291.00256 400.5816 4278190080
680.63165 457.54532 323.07092 4278190080
184.04903 56.533649 675.22156 4278190080
616.29749 866.58258 1018.3765 4278190080
61.777355 510.88403 825.16339 4278190080
1.7034516 638.82526 229.41382 4278190080
281.9407 331.05862 238.79939 4278190080
574.65228 235.64963 81.05265 4278190080
770.40808 539.72491 754.14246 4278190080
504.89297 588.05884 759.32623 4278190080
73.512558 41.254761 26.328796 4278190080
474.09415 721.88641 483.87411 4278190080
797.1651 905.93542 540.40778 4278190080
448.38663 498.23288 382.99036 4278190080
442.76306 560.01025 893.87439 4278190080
243.92647 561.71368 508.69965 4278190080
473.3403 843.65442 839.75824 4278190080
712.13971 394.30667 51.40789 4278190080
793.19232 140.71474 591.13281 4278190080
523.33478 645.60773 155.19165 4278190080
258.66104 719.1203 196.44641 4278190080
284.98984 169.21443 918.33282 4278190080
768.86395 966.37952 800.26819 4278190080
285.27173 390.76614 274.5011 4278190080
668.26208 833.52917 834.51135 4278190080
538.13647 53.455673 372.22504 4278190080
22.836142 526.79596 191.87943 4278190080
862.59442 214.93567 586.1861 4278190080
914.00232 1008.128 726.90082 4278190080
481.1351 507.4628 348.50854 4278190080
636.32672 766.12384 43.628822 4278190080
832.77313 27.113653 212.84325 4278190080
727.10596 795.9776 155.22278 4278190080
503.37418 57.249336 545.98889 4278190080
777.87524 725.51141 355.51813 4278190080
588.3866 239.64792 408.97379 4278190080
960.61163 262.48407 935.76978 4278190080
128.49106 101.07848 126.70544 4278190080
714.67719 1015.0807 110.83344 4278190080
417.578 472.21588 618.29626 4278190080
766.08655 84.542618 360.42007 4278190080
809.71539 917.3158 387.53372 4278190080
1022.5586 620.42169 159.51132 4278190080
153.7814 99.795883 216.76067 4278190080
699.77032 877.67114 942.27209 4278190080
31.288439 442.05774 157.92001 4278190080
440.26224 378.66937 420.40408 4278190080
352.03201 507.16043 521.48254 4278190080
478.73743 197.83759 512.56335 4278190080
589.57086 615.41559 984.77917 4278190080
183.86711 357.50214 45.321812 4278190080
544.28717 143.2175 962.63757 4278190080
931.82092 141.77612 559.05933 4278190080
67.332222 295.55753 658.85516 4278190080
284.0929 995.32782 512.52631 4278190080
202.36497 2.6162739 954.58405 4278190080
360.285 442.87851 309.25345 4278190080
780.68909 794.91052 816.41388 4278190080
278.17163 249.64795 1014.2515 4278190080
790.73492 839.21881 605.66705 4278190080
751.51416 1023.0859 963.16919 4278190080
796.83594 543.37311 82.386673 4278190080
735.47357 451.194 224.1628 4278190080
270.53284 518.52625 519.72034 4278190080
929.388 802.61914 491.04816 4278190080
417.91437 1004.9841 493.66443 4278190080
348.49841 341.2691 936.54291 4278190080
657.75189 97.958176 707.45343 4278190080
450.16574 376.12979 957.10138 4278190080
440.41721 142.86476 772.32019 4278190080
22.08424 894.37891 771.40613 4278190080
985.25342 667.21484 290.77927 4278190080
43.640091 378.68842 741.97327 4278190080
267.80289 649.22125 236.49951 4278190080
787.52319 554.60925 15.118639 4278190080
254.57135 972.52362 1020.1027 4278190080
748.23578 297.02206 337.37183 4278190080
660.77869 954.77393 435.33002 4278190080
344.23215 380.93967 811.45984 4278190080
277.33353 821.35687 954.32458 4278190080
25.653753 843.4411 824.70349 4278190080
797.05988 804.69452 467.91833 4278190080
63.839172 848.33459 846.60675 4278190080
805.81244 92.137489 471.828 4278190080
18.311966 879.66071 2.4372902 4278190080
33.430607 110.23204 974.96094 4278190080
29.533346 858.46783 247.98299 4278190080
366.90518 495.24652 178.75691 4278190080
802.23517 839.4787 559.69659 4278190080
589.69501 92.81221 357.05344 4278190080
520.01959 118.46597 176.49454 4278190080
320.72305 915.52588 981.18903 4278190080
788.64142 979.36505 805.52368 4278190080
611.24817 761.17749 897.66113 4278190080
59.076172 779.48944 753.32184 4278190080
61.513462 812.92004 863.55389 4278190080
12.474386 842.45343 698.02167 4278190080
260.45737 185.3586 169.26822 4278190080
439.21429 987.59381 1008.7469 4278190080
998.91089 553.28882 77.559097 4278190080
331.96429 49.308365 196.02505 4278190080
508.45883 370.03143 87.550926 4278190080
465.64789 134.67282 42.915966 4278190080
247.17155 745.92096 804.09344 4278190080
120.8327 804.99713 559.58289 4278190080
874.15454 866.51062 348.50299 4278190080
713.70844 878.98499 166.95639 4278190080
387.7301 115.44238 352.31497 4278190080
556.99835 554.65668 315.90875 4278190080
541.74518 529.5675 869.19757 4278190080
619.30432 861.53186 918.50592 4278190080
815.32935 345.99066 264.53732 4278190080
902.88031 811.63855 399.21014 4278190080
945.79626 34.81012 121.13113 4278190080
725.88971 155.64282 926.1283 4278190080
261.47263 5.7973585 768.63892 4278190080
609.97559 719.5058 623.6239 4278190080
776.93201 83.235886 739.06628 4278190080
105.24697 640.23419 269.72296 4278190080
421.15573 157.97942 799.29047 4278190080
266.35327 777.28369 636.82233 4278190080
160.85919 568.6131 982.81299 4278190080
425.39651 447.49338 770.45154 4278190080
824.60669 369.28964 805.26166 4278190080
945.73779 71.179359 960.90448 4278190080
847.86609 332.65198 966.70184 4278190080
592.505 942.62762 662.20764 4278190080
192.12892 695.55957 745.44348 4278190080
931.19519 800.80658 361.6777 4278190080
176.91817 197.9623 519.6571 4278190080
976.20862 464.31555 272.94086 4278190080
589.03094 625.17474 841.55396 4278190080
547.84393 26.571281 265.0473 4278190080
294.29547 851.17798 634.33698 4278190080
75.557144 772.91577 705.5163 4278190080
12.461636 596.78186 14.168303 4278190080
979.16351 165.2869 956.7959 4278190080
617.37109 357.4158 628.35547 4278190080
338.81461 264.61102 405.16205 4278190080
700.49231 441.52917 603.12433 4278190080
196.14946 393.73782 43.439911 4278190080
469.09033 982.7688 668.61469 4278190080
286.64426 506.6127 695.18597 4278190080
551.69159 800.90814 522.36389 4278190080
162.02853 876.46533 271.27969 4278190080
867.54486 888.92694 868.06158 4278190080
881.71313 844.09045 9.3484516 4278190080
814.50903 437.46155 366.76428 4278190080
418.86453 776.27618 631.37531 4278190080
824.02661 452.76849 48.904488 4278190080
403.15094 648.91797 442.6423 4278190080
446.59085 94.008286 401.41107 4278190080
91.205513 380.65253 908.0238 4278190080
786.39148 932.34412 684.93195 4278190080
284.75537 70.372643 537.39728 4278190080
556.03503 937.91748 402.32422 4278190080
400.09662 795.63062 222.41466 4278190080
409.44507 586.13965 659.87622 4278190080
776.20935 1005.0042 412.15237 4278190080
383.58463 805.03076 864.92084 4278190080
432.48911 184.18173 489.83884 4278190080
875.13141 630.77258 583.84711 4278190080
252.54251 721.97809 964.49963 4278190080
136.5663 484.36954 872.84375 4278190080
821.49823 769.12488 943.21643 4278190080
334.89554 301.15994 857.13391 4278190080
737.21973 701.25659 628.76453 4278190080
959.6344 86.701622 190.90417 4278190080
595.51062 862.91095 171.90837 4278190080
1007.663 222.49557 976.93915 4278190080
848.58386 654.98468 137.1209 4278190080
314.42267 506.11612 767.89349 4278190080
898.26978 758.65863 465.87155 4278190080
838.76941 895.22491 950.24109 4278190080
687.61322 692.72314 695.36597 4278190080
606.82959 3.6186872 996.52594 4278190080
439.96347 740.83844 673.78253 4278190080
44.727993 676.47284 760.48413 4278190080
235.63217 247.98346 599.39508 4278190080
407.54056 231.64644 821.89062 4278190080
360.47971 56.230289 452.87534 4278190080
497.60062 370.65295 958.99146 4278190080
241.49408 244.92274 693.65002 4278190080
707.3656 59.692188 564.87494 4278190080
633.60669 747.30536 233.59813 4278190080
304.97272 330.13498 237.21681 4278190080
277.49866 770.09845 978.05524 4278190080
951.28119 814.82648 630.52808 4278190080
687.76532 26.458635 878.51154 4278190080
263.16037 433.99918 86.15799 4278190080
61.05101 794.47888 142.38828 4278190080
513.92633 268.0795 513.04126 4278190080
448.91779 509.57358 757.96399 4278190080
118.56782 192.93921 817.65619 4278190080
683.44281 826.5459 540.96155 4278190080
917.04089 107.51862 871.09656 4278190080
130.25772 385.01727 617.19501 4278190080
84.312965 312.29843 408.02148 4278190080
714.84106 1000.0637 434.48013 4278190080
569.3526 239.22409 868.47931 4278190080
655.51062 300.27512 638.95819 4278190080
797.89886 814.20142 907.03772 4278190080
286.94012 239.11922 392.6113 4278190080
20.90411 357.68704 585.55054 4278190080
838.5603 17.129812 388.09644 4278190080
355.52185 934.17072 495.61505 4278190080
202.61842 40.428436 880.63232 4278190080
819.81348 124.7414 168.93076 4278190080
203.83495 839.58246 144.99449 4278190080
638.31506 384.93506 384.21857 4278190080
482.7944 16.445662 684.49365 4278190080
97.752617 814.34454 474.69513 4278190080
1004.7903 77.284653 713.81433 4278190080
373.40164 98.188759 47.501358 4278190080
958.95215 936.74902 64.631165 4278190080
323.04858 268.2709 998.80188 4278190080
818.66364 470.88934 15.230324 4278190080
675.29596 266.70279 139.97173 4278190080
844.22675 470.53775 979.5542 4278190080
989.22119 84.852821 340.48926 4278190080
349.43979 567.64722 356.93491 4278190080
9.9334688 665.39984 147.27945 4278190080
484.62857 646.19019 224.5641 4278190080
174.44292 1019.5918 322.75287 4278190080
221.94426 954.54395 235.50191 4278190080
286.57544 253.59256 503.77283 4278190080
261.37732 48.25621 974.66217 4278190080
276.60764 723.55219 217.36494 4278190080
416.57938 543.77893 687.90271 4278190080
372.13358 509.00012 772.75549 4278190080
712.6228 858.43994 316.40274 4278190080
45.557735 868.37341 981.80255 4278190080
192.83719 329.00198 603.99274 4278190080
417.40128 503.44489 599.58453 4278190080
740.15417 725.38916 530.12854 4278190080
975.65607 1011.9646 783.72113 4278190080
455.42889 249.34192 831.97729 4278190080
406.09103 525.94958 531.52948 4278190080
623.45599 942.52893 51.308411 4278190080
287.35867 290.66251 560.30853 4278190080
36.114178 1003.2853 394.74847 4278190080
352.51691 24.843056 239.12187 4278190080
310.31949 217.68024 568.12384 4278190080
914.31219 635.08154 47.568733 4278190080
489.89679 351.23569 772.95789 4278190080
1020.0253 302.89172 760.92249 4278190080
779.7464 758.32062 1010.2644 4278190080
587.72375 140.41167 512.21399 4278190080
95.253227 763.86768 430.74289 4278190080
146.56165 27.226336 721.4054 4278190080
706.87018 63.340515 700.69073 4278190080
77.618652 415.85742 725.53375 4278190080
316.74051 726.17688 943.21399 4278190080
884.86438 616.48914 554.29553 4278190080
932.43311 82.385902 905.53125 4278190080
681.39099 78.411217 184.42296 4278190080
418.31348 858.15765 942.74359 4278190080
404.57788 421.88138 59.155262 4278190080
916.79187 517.13458 823.02295 4278190080
323.53473 663.69623 850.24927 4278190080
20.940142 346.56644 913.58978 4278190080
721.63086 424.18509 305.4472 4278190080
423.16464 740.9256 7.624094 4278190080
342.37866 601.78998 624.11322 4278190080
896.67419 510.22305 706.49908 4278190080
778.20544 167.61406 784.91034 4278190080
962.62842 585.92755 619.06799 4278190080
881.37201 990.50543 16.949347 4278190080
940.52722 883.29724 534.08392 4278190080
739.55017 182.832 173.7802 4278190080
565.79944 203.77214 520.34662 4278190080
455.38922 925.40302 944.53168 4278190080
760.83643 324.56763 661.45728 4278190080
768.46051 666.94629 239.24727 4278190080
368.57373 539.62048 749.47034 4278190080
51.07283 293.82593 917.08441 4278190080
835.98315 232.45433 479.01193 4278190080
431.05115 89.826317 445.51733 4278190080
448.00049 6.3535676 304.81461 4278190080
982.08441 745.90375 487.64661 4278190080
131.86462 287.70319 691.41876 4278190080
652.21124 743.09241 592.82172 4278190080
572.74292 479.9288 917.3894 4278190080
210.20024 224.38931 560.33569 4278190080
449.44751 592.96301 75.956184 4278190080
174.91783 644.03589 369.7821 4278190080
68.002228 456.01904 602.23645 4278190080
547.01416 887.07019 692.06274 4278190080
992.53149 311.07065 698.41632 4278190080
273.3461 269.15509 420.32007 4278190080
760.99268 401.01971 708.02325 4278190080
428.41144 29.230957 427.11566 4278190080
1021.2332 601.97388 907.04449 4278190080
914.62256 812.17413 107.43379 4278190080
450.95825 237.62164 700.39685 4278190080
526.91443 412.53949 320.43271 4278190080
896.69653 480.54169 776.45172 4278190080
474.93298 3.5558538 639.52191 4278190080
142.99576 996.08734 950.59253 4278190080
841.41211 245.43344 195.74763 4278190080
237.73216 1006.4261 596.76733 4278190080
945.75543 410.83759 625.99829 4278190080
348.87106 408.07077 203.9722 4278190080
231.91554 298.69336 1016.1464 4278190080
339.34933 749.65161 229.76799 4278190080
15.746162 252.56604 642.30743 4278190080
336.17886 125.2626 98.849167 4278190080
88.630585 600.19562 102.40502 4278190080
728.15247 743.19135 74.492371 4278190080
654.74506 560.60345 319.92581 4278190080
850.49268 798.33563 302.35196 4278190080
423.26004 720.091 713.18958 4278190080
25.258335 44.96209 97.26033 4278190080
229.23055 276.87762 395.95367 4278190080
221.37689 616.22699 121.60529 4278190080
451.14487 631.97314 374.17133 4278190080
69.452332 968.15198 499.43393 4278190080
168.3015 32.782578 75.629547 4278190080
270.70651 760.93506 818.82092 4278190080
345.19888 391.68008 355.42435 4278190080
665.12469 218.17276 129.75995 4278190080
967.47668 641.4328 849.85095 4278190080
656.66626 666.6911 894.81305 4278190080
753.92657 895.92169 147.69069 4278190080
125.88025 93.298553 763.91766 4278190080
247.48555 544.44342 371.89081 4278190080
621.65686 613.89575 316.04279 4278190080
97.090828 782.19727 348.82538 4278190080
172.72037 28.903782 85.760422 4278190080
991.54126 374.10266 477.44052 4278190080
322.96564 15.227383 695.61328 4278190080
452.72559 982.70404 313.04608 4278190080
278.57654 615.3703 979.73718 4278190080
149.3896 345.29684 851.65887 4278190080
297.08029 471.17712 944.9574 4278190080
36.997971 718.66266 465.40085 4278190080
408.88876 316.31955 55.2966 4278190080
724.93158 413.41037 837.49384 4278190080
49.756927 586.13074 866.39764 4278190080
135.51735 553.672 216.50032 4278190080
612.95789 876.63763 231.72769 4278190080
284.57117 305.36322 190.43176 4278190080
597.61725 583.93976 805.80206 4278190080
553.35443 733.32935 127.09891 4278190080
381.01331 6.4096651 598.276 4278190080
301.97073 43.407635 292.93866 4278190080
767.37158 452.29642 609.25818 4278190080
822.66815 153.22797 1022.6686 4278190080
636.16205 202.98489 584.79932 4278190080
478.55966 338.50226 114.47131 4278190080
695.06 951.46014 991.10895 4278190080
926.78766 212.03128 272.47214 4278190080
93.219444 809.6485 856.41193 4278190080
899.02148 339.00293 565.74127 4278190080
2.1203947 720.01624 572.15094 4278190080
600.39642 1021.9869 615.55859 4278190080
893.33508 765.35852 43.854977 4278190080
478.59329 564.02667 197.08295 4278190080
477.26184 176.18872 400.06784 4278190080
38.061142 654.74841 738.57007 4278190080
152.53244 325.80838 666.03021 4278190080
119.64139 228.59605 878.06146 4278190080
392.11356 321.81549 663.71002 4278190080
224.52545 196.83699 1002.713 4278190080
790.26672 198.95738 698.72919 4278190080
338.41766 799.35382 696.71613 4278190080
953.97626 668.68884 438.07465 4278190080
997.83124 123.28214 1002.1014 4278190080
170.91415 600.54401 154.29007 4278190080
570.98199 638.6051 809.03845 4278190080
285.55209 791.13757 110.84682 4278190080
951.58234 910.77899 339.44287 4278190080
805.6438 278.89252 661.25836 4278190080
445.35379 503.41797 858.0954 4278190080
424.06674 269.68469 33.052757 4278190080
98.795914 608.10236 832.40656 4278190080
795.51202 538.07855 477.09543 4278190080
209.58672 511.90979 600.37756 4278190080
187.68806 682.82391 176.92155 4278190080
341.97812 229.80594 815.52667 4278190080
127.01659 515.35803 582.66425 4278190080
237.86342 442.94034 469.44324 4278190080
577.30627 224.58414 748.33575 4278190080
214.56468 669.93793 227.75369 4278190080
48.660057 70.004669 497.43835 4278190080
81.712814 168.80058 81.54071 4278190080
914.11938 964.31262 619.61926 4278190080
367.21478 149.89935 107.52907 4278190080
967.59235 337.5874 790.35303 4278190080
120.51389 679.56555 1020.1589 4278190080
936.04059 806.58215 511.51697 4278190080
494.70483 20.445536 954.45728 4278190080
964.14807 597.75183 155.04144 4278190080
688.48376 812.31653 824.97937 4278190080
916.23749 860.97656 894.98401 4278190080
389.67584 942.68939 39.784615 4278190080
471.21655 832.80878 1004.0972 4278190080
66.835831 176.02353 129.9966 4278190080
174.3649 119.61587 467.58401 4278190080
964.7179 240.12976 123.14954 4278190080
960.87683 152.17033 929.73169 4278190080
448.3938 646.87518 950.17719 4278190080
378.8511 587.02319 523.92902 4278190080
533.89252 251.50699 312.24554 4278190080
334.87192 143.74446 149.22212 4278190080
205.85594 533.42029 67.911514 4278190080
245.64056 1004.6368 900.72028 4278190080
225.73781 47.472679 52.74379 4278190080
355.73441 221.83757 172.35965 4278190080
823.31842 162.55548 412.48941 4278190080
946.46796 99.43232 564.65973 4278190080
852.19965 547.82611 187.53491 4278190080
778.37683 926.67725 774.55811 4278190080
278.30588 436.56979 2.065105 4278190080
590.55145 771.44171 145.80956 4278190080
739.77356 977.29767 679.22986 4278190080
807.68506 198.93822 659.8667 4278190080
684.40533 424.67603 707.33936 4278190080
737.14911 780.41046 929.17694 4278190080
909.50879 579.72888 67.73243 4278190080
297.9982 502.19681 167.16475 4278190080
862.65796 330.39645 714.99091 4278190080
26.192856 84.7733 617.66809 4278190080
800.75098 363.07919 30.237906 4278190080
802.8161 953.63062 801.67963 4278190080
948.62561 669.40417 754.97723 4278190080
603.85547 453.08926 953.91547 4278190080
239.7222 113.49462 354.59149 4278190080
947.06158 850.64374 111.00193 4278190080
852.23853 736.15253 690.73077 4278190080
919.97095 10.150739 168.9276 4278190080
63.135719 872.80872 499.32407 4278190080
778.12659 899.00153 584.09735 4278190080
371.79471 675.7525 947.17651 4278190080
402.03262 454.5686 876.80719 4278190080
179.71223 379.19424 522.21136 4278190080
934.68945 983.04974 975.30066 4278190080
864.60492 198.77194 64.79525 4278190080
195.19644 121.83352 915.43903 4278190080
306.19836 974.07208 627.59155 4278190080
996.92914 870.04303 637.74225 4278190080
141.85675 933.17877 486.55096 4278190080
641.18079 687.30536 361.55252 4278190080
201.27817 35.10006 13.305031 4278190080
124.45471 437.13269 467.87363 4278190080
1001.2619 616.84491 847.06787 4278190080
499.47324 527.53436 806.11761 4278190080
450.77386 368.13934 1004.8895 4278190080
515.56915 563.33575 102.72305 4278190080
407.00812 869.53418 52.795109 4278190080
10.599667 842.46332 922.83813 4278190080
648.34192 984.32007 832.01685 4278190080
110.89291 601.50085 495.3222 4278190080
472.44543 802.77905 530.4223 4278190080
485.75046 927.23376 967.55493 4278190080
953.62408 904.49561 560.39984 4278190080
776.69196 379.96887 63.934258 4278190080
558.80957 830.74274 432.07361 4278190080
539.6991 322.31189 995.40936 4278190080
642.42212 729.32001 840.94354 4278190080
695.21722 739.91968 659.40686 4278190080
594.05536 364.26163 619.72687 4278190080
402.07227 475.15454 197.22775 4278190080
897.39447 947.59998 1000.0068 4278190080
403.81674 409.3504 903.24054 4278190080
347.3717 338.97449 783.73621 4278190080
907.77155 91.666428 139.70506 4278190080
971.70581 650.47595 970.44781 4278190080
379.77942 166.17505 268.7597 4278190080
351.18881 808.59717 998.07971 4278190080
168.13232 479.81445 713.99939 4278190080
827.53918 49.869823 54.260994 4278190080
423.26605 451.94208 529.41553 4278190080
620.49384 325.33655 453.01547 4278190080
596.50061 729.15332 862.36591 4278190080
475.74115 52.524998 177.34036 4278190080
235.47736 960.29657 269.00681 4278190080
375.1824 908.00238 919.48279 4278190080
321.63022 263.7818 61.657822 4278190080
590.38989 614.97058 870.255 4278190080
564.4696 783.10291 326.06946 4278190080
254.46899 586.64209 375.9393 4278190080
308.72998 1009.9081 827.88135 4278190080
838.14551 606.40198 129.21793 4278190080
267.16098 178.90259 858.37122 4278190080
105.52687 654.64374 910.89624 4278190080
282.86725 890.12109 847.19281 4278190080
551.87402 241.30351 731.19519 4278190080
447.35681 562.93372 994.97699 4278190080
509.01462 129.32367 585.94757 4278190080
355.26965 693.79327 345.05051 4278190080
681.33911 948.26227 931.69263 4278190080
33.278393 232.99228 917.60077 4278190080
861.15979 47.137794 500.00272 4278190080
990.37769 314.2988 678.90533 4278190080
824.7489 419.82565 309.54904 4278190080
711.64514 702.69287 175.67015 4278190080
534.83789 230.56694 416.97366 4278190080
242.03307 677.92371 979.90741 4278190080
213.01003 162.93835 85.231064 4278190080
798.95758 518.20801 779.02435 4278190080
120.00809 175.5471 703.28662 4278190080
27.700697 208.8255 936.27893 4278190080
945.30145 45.985268 983.41669 4278190080
421.30417 12.362953 273.71548 4278190080
76.20948 837.11188 693.54114 4278190080
385.75851 524.75696 372.23404 4278190080
561.42865 35.594887 602.80096 4278190080
978.40234 277.62796 256.72473 4278190080
934.30975 490.63797 419.66309 4278190080
1019.5408 265.59558 937.87109 4278190080
774.56512 385.60367 89.418198 4278190080
453.85178 413.30438 298.24371 4278190080
366.13068 334.60583 344.22897 4278190080
325.54739 755.90997 356.59192 4278190080
599.26288 832.11951 169.70378 4278190080
268.80405 193.87801 694.46075 4278190080
641.03809 755.3067 730.05566 4278190080
219.83908 709.70905 1007.6836 4278190080
476.56381 620.01874 474.32159 4278190080
896.22687 615.55957 739.91718 4278190080
810.09796 366.12469 101.52084 4278190080
899.51617 819.9765 514.8252 4278190080
173.75987 162.10718 849.43103 4278190080
517.98883 487.65457 581.34106 4278190080
874.58075 62.917454 389.46051 4278190080
20.284548 331.7215 583.3385 4278190080
714.7453 972.75958 314.6452 4278190080
420.80096 168.59866 0.35421658 4278190080
404.48456 645.16248 620.37299 4278190080
878.80615 517.38934 211.93253 4278190080
594.72333 303.48734 578.05725 4278190080
696.24414 179.00349 374.03369 4278190080
187.06937 352.76337 536.14087 4278190080
12.500398 870.7522 1023.7955 4278190080
593.84143 721.33301 62.712906 4278190080
983.30194 741.61755 394.43439 4278190080
542.64044 432.36285 343.19397 4278190080
857.28564 853.16382 511.79263 4278190080
857.63989 233.64836 132.95511 4278190080
454.01285 88.454506 650.34448 4278190080
665.94537 683.1778 953.83179 4278190080
220.00259 355.42197 108.83528 4278190080
594.03632 542.49133 461.59866 4278190080
106.17718 554.9917 308.35086 4278190080
105.97263 124.83315 5.683856 4278190080
168.68553 84.135094 747.30139 4278190080
563.11993 626.77557 155.66423 4278190080
906.3139 460.06122 1008.8281 4278190080
394.10654 293.70111 218.47639 4278190080
527.06165 747.71399 306.93091 4278190080
153.40611 389.65933 990.1087 4278190080
83.2379 609.66193 321.53067 4278190080
192.07318 179.69823 864.02197 4278190080
653.67181 285.87543 395.0137 4278190080
962.02271 391.84805 519.84686 4278190080
967.70654 560.53357 603.98193 4278190080
691.00793 99.653511 206.75749 4278190080
846.67218 1005.9674 666.81873 4278190080
831.50024 376.07397 960.51984 4278190080
25.97662 903.13562 684.23376 4278190080
332.90753 32.541744 49.893131 4278190080
299.01624 115.77964 659.55505 4278190080
620.54694 307.85281 839.2533 4278190080
460.56891 961.52466 101.12872 4278190080
855.58258 899.54736 492.97675 4278190080
351.42944 843.25391 29.510338 4278190080
955.41138 510.26187 129.16385 4278190080
138.16885 332.93405 111.13127 4278190080
804.98761 140.43428 487.20523 4278190080
741.50745 166.4109 366.34088 4278190080
401.74121 499.31842 398.8826 4278190080
451.63434 798.33466 514.66223 4278190080
87.189407 394.88159 822.51508 4278190080
926.44269 855.4505 760.03973 4278190080
3.5714221 687.03308 635.5871 4278190080
496.54819 14.462492 454.84103 4278190080
526.05853 969.87384 965.10291 4278190080
655.22235 84.042717 274.03696 4278190080
766.35364 889.03027 414.47125 4278190080
229.55887 606.53772 580.88214 4278190080
595.89972 1008.2789 56.200581 4278190080
994.78235 435.91327 854.53528 4278190080
485.44461 523.10266 225.41682 4278190080
283.95969 425.54538 56.867302 4278190080
19.99943 429.11682 743.90039 4278190080
655.58655 925.66498 758.36285 4278190080
86.427559 427.72351 704.23669 4278190080
27.53046 58.945881 788.27942 4278190080
301.56741 825.2995 653.30975 4278190080
716.0387 30.858393 235.84746 4278190080
272.92084 626.75812 220.12639 4278190080
329.1214 597.54047 656.03967 4278190080
159.65666 58.985107 155.14235 4278190080
385.07349 342.94479 580.68774 4278190080
441.9408 362.94424 1009.8046 4278190080
161.84116 1018.5308 911.46954 4278190080
920.20404 80.958321 315.19305 4278190080
600.44073 108.48878 374.13895 4278190080
364.72018 410.05621 175.43846 4278190080
1018.0299 102.09488 206.29686 4278190080
229.87737 375.01572 833.05499 4278190080
450.00375 704.13708 406.59549 4278190080
82.043419 863.79376 465.5806 4278190080
237.18576 224.86726 808.52539 4278190080
817.87347 666.80804 147.46964 4278190080
803.67804 828.64923 142.0004 4278190080
691.14758 724.85321 222.95871 4278190080
1006.3406 301.29398 331.44748 4278190080
356.47961 666.01416 741.50372 4278190080
531.91809 660.04407 843.59857 4278190080
738.2149 889.92145 194.61429 4278190080
547.2699 315.92517 898.7514 4278190080
953.86542 397.9686 738.54517 4278190080
395.44601 635.15436 963.41241 4278190080
179.97141 429.02786 606.22046 4278190080
327.44104 208.70592 410.86969 4278190080
469.44144 899.85352 111.72294 4278190080
692.40015 882.19421 413.01691 4278190080
1023.8477 214.6738 55.031052 4278190080
741.35132 746.59186 715.07513 4278190080
560.94989 460.80679 580.99652 4278190080
755.56421 1008.0767 896.92169 4278190080
630.31555 937.94214 270.89029 4278190080
344.86075 309.38812 906.04468 4278190080
284.27316 489.35953 311.07254 4278190080
890.49365 816.80054 519.77844 4278190080
277.36337 262.24197 395.63199 4278190080
389.0863 954.64209 253.82617 4278190080
802.10321 954.48975 468.49997 4278190080
857.13428 671.84106 191.09186 4278190080
548.20935 208.79097 651.89868 4278190080
105.2059 964.35516 635.9754 4278190080
1002.1276 570.67072 549.91748 4278190080
249.01791 915.53149 859.3056 4278190080
131.06258 175.80464 324.66516 4278190080
442.1351 42.298309 117.46571 4278190080
961.91357 319.66168 379.70767 4278190080
333.54553 708.74799 310.34979 4278190080
587.3717 486.8512 240.83952 4278190080
31.871689 319.98544 912.6806 4278190080
222.96355 868.19482 97.47155 4278190080
874.86218 973.40076 37.826698 4278190080
486.83759 951.52832 608.49744 4278190080
12.755074 176.54625 500.0289 4278190080
872.06073 307.60883 675.83356 4278190080
172.72586 749.74396 718.13184 4278190080
290.19156 687.65747 13.793522 4278190080
669.89923 1021.2031 722.5415 4278190080
980.24902 584.57477 185.39268 4278190080
197.08856 616.44641 505.37814 4278190080
85.769142 839.40997 349.57297 4278190080
183.24069 690.27216 298.97369 4278190080
221.0674 153.10974 226.50204 4278190080
829.56482 165.86482 403.04828 4278190080
305.59372 13.925522 710.6571 4278190080
981.42725 186.65138 436.40103 4278190080
675.55908 476.84296 100.05854 4278190080
689.3526 122.74218 97.261581 4278190080
387.89413 78.991211 681.8363 4278190080
573.2868 276.07977 274.28278 4278190080
54.664955 361.84891 89.692749 4278190080
404.23792 545.0896 779.9649 4278190080
703.21161 766.15698 933.07465 4278190080
929.71368 571.7218 74.939484 4278190080
308.76193 877.31555 88.865005 4278190080
1019.4191 834.7428 275.51639 4278190080
431.8201 486.30188 752.35931 4278190080
531.87866 151.65453 875.1015 4278190080
629.1402 539.54865 954.09271 4278190080
286.97656 88.835457 206.17249 4278190080
561.25934 143.50041 568.02142 4278190080
650.95209 547.73834 89.111015 4278190080
406.91699 226.94995 855.26801 4278190080
315.99164 132.66362 402.98984 4278190080
390.93112 441.42557 256.30536 4278190080
479.79614 436.84464 67.048157 4278190080
755.3125 868.66473 553.35004 4278190080
483.67184 376.54337 705.00458 4278190080
334.77335 1005.6836 220.55322 4278190080
264.86606 268.66013 309.38867 4278190080
471.03857 829.91943 452.8891 4278190080
15.059964 456.87152 1000.6274 4278190080
104.17097 863.78851 203.57738 4278190080
959.43896 155.78015 336.241 4278190080
338.42883 546.7113 777.66656 4278190080
594.73419 2.5074191 190.51117 4278190080
661.78235 757.81995 35.175903 4278190080
191.1324 217.49178 411.71927 4278190080
896.13696 552.26514 393.40286 4278190080
92.690193 817.13116 662.06299 4278190080
402.07886 264.16977 467.98245 4278190080
854.96796 279.22971 924.85394 4278190080
831.5954 383.4007 764.64246 4278190080
11.17275 318.83969 920.42261 4278190080
347.41373 657.26849 443.13391 4278190080
101.0803 228.00272 445.64133 4278190080
