# .PCD v0.7 - Point Cloud Data file format
VERSION 0.7
FIELDS x y z rgb
SIZE 4 4 4 4
TYPE F F F U
COUNT 1 1 1 1
WIDTH 1175
HEIGHT 1
VIEWPOINT 0 0 0 1 0 0 0
POINTS 1175
DATA ascii
345.05746 741.66235 805.1546 4278190080
58.65517 439.21909 278.46823 4278190080
673.3255 429.89597 290.59235 4278190080
27.434803 601.76532 474.93759 4278190080
70.154198 109.70186 895.16864 4278190080
100.76653 815.63409 686.7699 4278190080
432.76825 868.64435 906.02155 4278190080
460.41293 911.66248 179.6561 4278190080
550.00891 39.489597 658.34692 4278190080
387.40369 301.88693 838.43518 4278190080
498.84137 646.9444 556.09753 4278190080
279.99597 705.59955 995.31665 4278190080
558.46417 354.92508 401.21259 4278190080
849.05652 382.35986 1002.9779 4278190080
299.99411 452.51407 88.679794 4278190080
171.16277 553.28058 904.31384 4278190080
857.93268 986.04883 748.95825 4278190080
739.95422 422.46176 636.62073 4278190080
919.61029 972.4707 676.11029 4278190080
553.95728 335.87439 977.99725 4278190080
368.39243 834.71576 600.94165 4278190080
924.48993 90.711731 282.5412 4278190080
895.80658 649.1759 637.46625 4278190080
273.01917 474.23245 1019.8261 4278190080
251.99709 774.22656 448.34018 4278190080
340.67688 945.38934 1001.6208 4278190080
220.99075 779.32208 963.66962 4278190080
969.94897 495.27628 362.13141 4278190080
582.5697 390.8866 310.60211 4278190080
234.68002 944.84387 646.4765 4278190080
188.67728 289.23627 457.19226 4278190080
789.6189 189.72624 547.90399 4278190080
48.160088 61.532814 173.07991 4278190080
685.62634 334.55197 647.31238 4278190080
681.45245 586.54907 397.53894 4278190080
105.79266 927.22595 318.92831 4278190080
83.413445 124.21669 74.250374 4278190080
23.083073 70.165672 569.52667 4278190080
385.21448 652.73535 960.41327 4278190080
695.81659 887.41541 881.25708 4278190080
318.29306 52.09267 146.49338 4278190080
775.48529 841.71155 336.2196 4278190080
299.38931 889.87164 397.75244 4278190080
472.46921 551.49799 732.30438 4278190080
95.781578 208.95047 294.85345 4278190080
493.32053 314.74313 198.07941 4278190080
812.24884 398.15659 322.29608 4278190080
886.49921 421.23965 392.46176 4278190080
432.02585 806.4541 21.197132 4278190080
368.43912 478.27069 908.61255 4278190080
225.69621 796.56378 960.7052 4278190080
372.18958 548.04907 778.41675 4278190080
708.40918 847.43835 644.28845 4278190080
82.161636 295.90759 171.78645 4278190080
814.46606 391.68915 380.73691 4278190080
85.319496 885.0097 695.48004 4278190080
283.3989 673.25854 69.636627 4278190080
605.69501 535.75775 490.87628 4278190080
998.15674 967.78363 273.33038 4278190080
1019.3539 312.22272 751.60107 4278190080
903.96643 537.91895 524.16486 4278190080
840.67163 910.10852 48.213936 4278190080
595.08838 594.5177 895.65228 4278190080
215.37683 676.67938 167.55989 4278190080
387.16327 467.14539 559.24902 4278190080
767.90021 552.4649 420.25873 4278190080
439.38025 835.86377 69.517273 4278190080
509.01688 417.55878 605.27502 4278190080
999.89313 391.71552 549.05865 4278190080
249.22356 387.0694 861.28137 4278190080
1000.8246 267.0358 375.20029 4278190080
500.9895 83.707428 261.30881 4278190080
549.20343 678.79584 855.82654 4278190080
420.85574 894.17267 508.50589 4278190080
588.41565 257.33591 975.65131 4278190080
123.6647 1.2361164 504.11618 4278190080
543.92346 440.61636 315.97998 4278190080
613.44073 949.63324 733.53876 4278190080
194.71573 925.52637 101.25429 4278190080
743.77435 150.74995 488.3237 4278190080
581.05573 127.57459 755.3595 4278190080
956.25598 628.56409 839.06696 4278190080
193.56479 153.76755 493.86273 4278190080
25.391323 574.62329 364.0354 4278190080
533.89722 139.03896 621.37128 4278190080
485.54849 262.70364 622.60742 4278190080
989.66467 806.62708 39.223785 4278190080
281.64465 396.06781 988.85706 4278190080
1015.1834 590.78357 890.38342 4278190080
92.437714 310.55789 17.133375 4278190080
580.76141 891.61365 144.70798 4278190080
312.12091 823.86963 773.27209 4278190080
127.18784 1017.4344 927.03961 4278190080
621.0506 18.825735 477.6629 4278190080
985.08594 552.72296 616.70184 4278190080
582.45728 14.271446 879.40552 4278190080
181.06468 1003.9362 662.03259 4278190080
220.28847 261.58078 34.100426 4278190080
185.14551 252.76422 624.88397 4278190080
51.528931 345.20193 935.44189 4278190080
68.662308 925.96332 803.05548 4278190080
213.37027 214.08423 602.92511 4278190080
986.64233 341.27206 596.3595 4278190080
889.68195 962.32263 615.18524 4278190080
343.34488 923.40857 143.9082 4278190080
960.04675 481.86588 158.17966 4278190080
815.45227 662.93054 138.11578 4278190080
453.48489 883.21899 399.69656 4278190080
487.58533 44.364529 652.46082 4278190080
88.469284 95.893456 997.66272 4278190080
1023.9111 164.55577 899.62604 4278190080
802.96667 377.92606 89.710274 4278190080
381.89175 340.56839 430.98233 4278190080
978.25128 206.25035 369.30499 4278190080
569.43652 549.59521 268.71359 4278190080
713.34473 485.642 750.57947 4278190080
871.52441 277.09427 389.51001 4278190080
1009.6402 730.57916 248.72902 4278190080
385.33676 194.16446 293.09354 4278190080
13.797545 282.63376 388.987 4278190080
1011.4603 282.54489 553.54279 4278190080
887.0863 61.511551 931.46881 4278190080
976.79657 443.40332 248.0372 4278190080
383.77893 397.6546 454.28757 4278190080
753.08392 967.09113 1003.8828 4278190080
1021.7975 656.43585 465.52478 4278190080
748.37695 503.96027 742.61908 4278190080
113.88692 489.60046 449.19821 4278190080
362.61594 874.93719 643.36267 4278190080
655.70947 888.73474 925.9964 4278190080
20.696493 876.19501 184.54132 4278190080
574.23926 739.28131 246.05287 4278190080
481.70807 692.07788 689.45618 4278190080
729.7453 51.856834 63.110767 4278190080
160.03284 804.94073 6.2019019 4278190080
139.91565 802.73822 662.63776 4278190080
605.44043 527.11517 142.59807 4278190080
324.05951 641.00208 632.19855 4278190080
773.25769 1003.618 483.13574 4278190080
392.62039 635.32751 347.87051 4278190080
294.61679 656.02405 200.06552 4278190080
479.15811 206.26329 939.34686 4278190080
725.211 687.97137 607.42474 4278190080
390.66718 393.71664 659.28162 4278190080
453.77792 553.74951 440.22235 4278190080
459.97983 693.6651 218.96057 4278190080
98.617615 275.10556 746.07574 4278190080
241.21568 599.16504 363.07782 4278190080
873.41418 348.42279 342.69586 4278190080
332.54993 741.04315 978.02338 4278190080
680.42047 11.659963 610.04742 4278190080
880.48596 490.81808 816.31067 4278190080
795.83282 192.02907 480.28204 4278190080
379.2576 582.69623 873.99872 4278190080
14.539198 12.47417 403.74817 4278190080
454.76154 472.45401 73.413307 4278190080
673.72211 571.07159 348.51886 4278190080
395.79785 812.28729 947.68396 4278190080
758.87567 661.70148 272.10672 4278190080
77.571548 994.25146 1013.1499 4278190080
31.594942 650.67188 0.80984497 4278190080
641.64233 507.15787 491.62793 4278190080
433.95306 278.99069 683.65698 4278190080
914.23511 658.24829 242.35324 4278190080
764.23383 672.78748 254.82741 4278190080
143.98198 103.54903 727.28143 4278190080
217.39528 777.27112 274.35303 4278190080
565.91418 149.069 62.640335 4278190080
489.59811 907.9447 724.34186 4278190080
761.70483 985.51624 694.59326 4278190080
750.85468 1017.1111 321.26517 4278190080
751.66455 634.75354 828.42303 4278190080
219.29248 44.706581 83.413727 4278190080
902.94946 958.94171 741.66205 4278190080
121.30271 699.17548 390.44952 4278190080
376.13013 843.15747 493.99854 4278190080
79.41153 36.552757 247.26968 4278190080
353.76456 602.46692 396.33868 4278190080
416.40491 68.065018 280.28336 4278190080
116.74673 829.76984 241.79959 4278190080
811.34003 556.62451 234.91077 4278190080
108.60519 284.28909 869.66431 4278190080
937.0282 503.58157 914.37085 4278190080
1020.442 382.53104 849.31256 4278190080
738.104 503.83374 524.48804 4278190080
104.55349 879.96387 343.64554 4278190080
598.552 959.37543 380.19827 4278190080
845.82172 289.13995 982.66522 4278190080
218.16039 705.54486 26.730219 4278190080
498.44376 822.29163 856.50006 4278190080
740.24335 609.63159 389.1246 4278190080
975.15411 718.23682 673.4137 4278190080
820.81842 631.26501 152.99525 4278190080
711.18927 627.70697 535.52631 4278190080
536.50183 341.81097 15.360046 4278190080
36.989876 446.36447 895.32391 4278190080
380.63541 20.916487 830.69934 4278190080
760.83368 866.73822 95.839294 4278190080
719.4989 60.898586 801.38416 4278190080
746.22913 559.34235 599.67578 4278190080
578.72919 275.58569 185.30737 4278190080
967.85376 226.73979 903.54419 4278190080
617.26746 23.558178 510.80923 4278190080
770.2627 734.74744 114.51621 4278190080
281.789 247.24927 456.32718 4278190080
297.14905 284.23914 902.69165 4278190080
168.47296 664.87457 923.60815 4278190080
999.1723 401.70825 766.34631 4278190080
71.011574 97.207138 827.24493 4278190080
872.39575 843.43628 362.58725 4278190080
448.07147 398.16544 638.17297 4278190080
633.37885 342.0192 864.91272 4278190080
512.92303 959.28662 888.47089 4278190080
1023.7322 705.54932 599.21832 4278190080
114.24848 987.33832 846.46759 4278190080
570.57568 260.48737 106.70674 4278190080
449.26733 428.96033 771.5813 4278190080
348.87546 404.1326 149.28952 4278190080
91.221794 475.14417 246.49666 4278190080
918.46674 323.53989 65.932915 4278190080
257.05399 771.61139 464.09833 4278190080
895.22693 380.99023 806.11755 4278190080
736.13965 893.91327 741.40417 4278190080
600.61053 893.64557 422.95349 4278190080
175.8289 1007.894 386.29181 4278190080
1022.2965 554.46967 646.77917 4278190080
105.00325 1003.737 51.739487 4278190080
876.58453 328.61249 455.87207 4278190080
1.8740664 419.83426 931.01624 4278190080
248.37073 314.30099 230.55615 4278190080
314.30365 571.35498 1002.1675 4278190080
778.40198 442.58188 359.15778 4278190080
560.51953 154.72153 229.07104 4278190080
277.92368 755.33209 98.716591 4278190080
700.8772 931.16095 82.610619 4278190080
63.168987 929.45746 637.08032 4278190080
709.94818 10.460732 616.81732 4278190080
761.68762 887.04529 945.42981 4278190080
193.55974 888.91931 341.26407 4278190080
100.57598 113.29007 655.56506 4278190080
331.13214 427.59372 202.92001 4278190080
309.29965 181.9957 645.50189 4278190080
668.4574 742.5152 800.22339 4278190080
897.52844 1020.4389 531.55548 4278190080
996.24506 697.31604 438.71646 4278190080
54.855679 760.48505 344.17395 4278190080
691.93597 446.4332 354.63467 4278190080
284.75333 184.12085 217.67995 4278190080
206.18312 377.68057 82.599289 4278190080
547.4472 478.25656 195.88936 4278190080
179.01224 809.38867 623.48309 4278190080
381.93225 94.688354 805.47876 4278190080
3.4341359 763.14575 523.99396 4278190080
803.65753 636.67426 520.43286 4278190080
311.21304 608.91931 193.74892 4278190080
749.9295 663.77496 954.23395 4278190080
70.103455 331.71097 376.66718 4278190080
424.73813 616.46429 560.78802 4278190080
642.41809 822.6474 938.46857 4278190080
725.0174 346.0946 392.72516 4278190080
920.90674 525.10687 178.11385 4278190080
520.38983 907.03912 272.80222 4278190080
301.86859 910.47321 11.947976 4278190080
825.86255 690.1308 648.62219 4278190080
322.29544 1001.3438 233.54152 4278190080
516.04437 727.27332 897.31653 4278190080
446.27832 797.37677 205.02748 4278190080
822.9455 198.11491 821.49176 4278190080
359.73349 840.53302 620.13916 4278190080
274.20209 541.55035 966.23376 4278190080
666.92725 438.45712 467.34064 4278190080
845.04108 958.84692 350.37973 4278190080
93.843307 236.71553 236.85295 4278190080
105.79128 38.578114 926.98376 4278190080
754.41351 360.87357 904.32758 4278190080
987.95502 876.91791 607.60089 4278190080
861.27155 299.19626 380.97763 4278190080
42.298996 98.141754 579.09253 4278190080
863.79077 457.87524 395.62555 4278190080
459.92996 732.07733 937.17596 4278190080
402.16373 375.00461 351.63306 4278190080
869.50439 196.0457 286.48001 4278190080
195.88409 289.88901 523.19556 4278190080
432.73706 395.6803 561.77368 4278190080
335.72079 126.0938 922.64722 4278190080
216.04834 90.048813 775.56512 4278190080
823.64923 951.32031 50.761402 4278190080
180.62685 993.61932 148.90315 4278190080
759.71942 833.4101 606.77838 4278190080
131.34496 269.34006 314.85574 4278190080
44.520889 671.50378 689.86035 4278190080
396.15396 517.00818 885.90607 4278190080
682.63397 712.89227 151.79506 4278190080
181.8295 121.6293 547.47534 4278190080
743.60315 457.35007 673.56915 4278190080
642.25037 673.39844 763.61798 4278190080
393.81549 473.04761 690.93829 4278190080
444.5769 653.67444 660.55762 4278190080
593.48004 389.39386 469.96774 4278190080
176.25847 520.73883 739.3078 4278190080
491.11423 565.2597 386.81158 4278190080
156.97458 961.41364 903.8197 4278190080
18.880625 620.04761 592.71198 4278190080
170.67569 801.87708 714.34125 4278190080
718.15106 521.48022 147.69135 4278190080
367.72018 139.73061 821.08978 4278190080
107.33816 533.54608 270.13739 4278190080
798.27643 978.12299 923.81183 4278190080
434.83411 547.60309 289.20572 4278190080
904.80182 723.86151 809.94452 4278190080
620.10962 190.97575 351.20425 4278190080
1006.9212 347.95032 288.61792 4278190080
886.74091 366.83096 908.66553 4278190080
455.45288 537.50665 686.5426 4278190080
145.79416 231.65768 184.02287 4278190080
293.4855 599.37787 323.75348 4278190080
90.575272 706.716 857.29956 4278190080
360.71265 480.99249 811.42261 4278190080
260.52451 915.8266 335.02567 4278190080
549.73022 796.62842 34.887207 4278190080
335.67477 392.73804 225.86296 4278190080
686.87903 375.65924 573.81329 4278190080
975.49695 238.40015 940.64423 4278190080
860.16248 693.85303 454.15088 4278190080
522.70508 839.64722 685.80853 4278190080
706.72797 109.13271 261.18643 4278190080
6.4814205 199.70798 967.90247 4278190080
863.78101 560.42065 424.89496 4278190080
651.20361 820.94513 316.72153 4278190080
986.22931 346.67538 89.349945 4278190080
1021.1165 682.35016 482.08798 4278190080
222.97945 345.22919 857.74719 4278190080
796.79272 296.72614 72.147362 4278190080
713.43695 132.88857 766.00043 4278190080
143.58786 655.59363 581.64758 4278190080
829.39642 338.32159 690.78027 4278190080
66.582855 344.80301 890.48828 4278190080
10.485319 184.58401 426.90891 4278190080
435.38028 835.7876 223.85403 4278190080
752.10181 798.01691 570.52942 4278190080
841.45172 795.13342 228.87958 4278190080
299.53973 1018.1129 574.10876 4278190080
133.28693 790.90558 870.8349 4278190080
205.4343 480.34256 1003.7234 4278190080
971.43469 623.93042 635.31708 4278190080
529.08228 429.32684 973.63867 4278190080
195.86259 495.9097 294.44168 4278190080
62.350868 506.39502 479.0257 4278190080
489.25977 941.77527 290.81332 4278190080
713.11383 669.87708 64.830238 4278190080
259.64322 487.32883 859.96362 4278190080
488.5228 786.86853 854.07648 4278190080
38.631573 920.15546 620.98206 4278190080
909.46643 101.58978 77.324638 4278190080
889.18994 49.024464 701.25507 4278190080
500.50702 578.10675 106.58191 4278190080
450.14569 773.96936 602.49158 4278190080
744.5874 836.32019 84.88662 4278190080
199.6131 301.57999 2.6619062 4278190080
490.42642 1014.6938 672.539 4278190080
555.25665 250.33704 135.86783 4278190080
391.22028 738.85986 922.73639 4278190080
221.29677 777.49139 818.89185 4278190080
842.27887 662.95789 920.48163 4278190080
919.60345 528.14777 969.5061 4278190080
596.85852 4.6548157 523.61285 4278190080
703.44043 454.80051 273.58221 4278190080
281.93207 175.38791 85.90242 4278190080
366.8187 375.00101 387.48242 4278190080
369.48059 865.42743 378.17621 4278190080
18.019581 396.68408 628.51324 4278190080
153.88741 787.90436 343.37308 4278190080
52.623775 1009.2011 96.864494 4278190080
871.51562 827.47998 759.82239 4278190080
767.99725 723.08344 263.97015 4278190080
713.50336 295.94202 268.62497 4278190080
213.11621 999.38245 723.42548 4278190080
486.69843 257.31451 898.81342 4278190080
572.60083 624.13324 249.81442 4278190080
960.08325 993.61377 91.241837 4278190080
314.25946 1011.6334 487.9259 4278190080
942.77271 141.52078 251.83028 4278190080
262.14578 194.14456 237.0314 4278190080
359.01028 41.660191 40.511387 4278190080
94.832642 809.65747 763.59485 4278190080
358.80283 499.16083 35.536861 4278190080
627.4278 712.27704 10.919331 4278190080
326.8533 174.97543 268.23386 4278190080
201.66672 747.57629 892.36707 4278190080
451.48114 683.65955 861.9809 4278190080
542.72296 997.91901 849.61426 4278190080
6.6488838 916.69165 991.13501 4278190080
258.47916 154.83745 161.27959 4278190080
495.51056 513.84772 202.93977 4278190080
536.02197 608.68036 1012.5972 4278190080
275.61682 967.48315 487.75806 4278190080
311.15369 570.91095 176.03506 4278190080
322.073 897.76428 351.0105 4278190080
590.30688 75.430992 74.586784 4278190080
458.67392 526.91211 758.24628 4278190080
296.65479 45.635094 732.16528 4278190080
122.26904 52.283978 624.85693 4278190080
89.404076 310.76312 779.6944 4278190080
250.68365 806.27368 269.54211 4278190080
453.62344 318.29565 878.22247 4278190080
442.22067 593.91248 821.70569 4278190080
929.9787 905.06616 368.61667 4278190080
82.013779 203.13914 242.38094 4278190080
433.02429 793.44598 317.81192 4278190080
507.61108 228.11993 844.72406 4278190080
241.85738 524.77472 890.35913 4278190080
974.02264 647.04376 942.64313 4278190080
574.87964 736.44788 229.40625 4278190080
330.57401 987.13153 11.67996 4278190080
600.11615 416.75494 329.97562 4278190080
454.33862 858.97565 923.88812 4278190080
252.04431 764.95435 804.95422 4278190080
620.66095 846.96814 1008.0934 4278190080
863.04187 255.9924 777.53937 4278190080
156.85382 763.60345 1005.6594 4278190080
1001.5779 1005.4609 506.43408 4278190080
867.93701 955.48352 129.47786 4278190080
786.58014 506.36313 865.92572 4278190080
1015.9864 836.93713 829.05725 4278190080
3.6663451 413.05328 221.81218 4278190080
333.64197 867.39191 56.787804 4278190080
233.53006 95.436226 821.74213 4278190080
14.484307 716.09717 644.71027 4278190080
1022.5777 555.1391 900.70264 4278190080
776.11707 711.99292 640.30609 4278190080
757.77643 689.5708 621.76697 4278190080
240.21049 533.50781 553.25049 4278190080
369.68835 296.08792 35.613605 4278190080
211.61407 288.07431 872.55072 4278190080
16.67131 291.74066 261.60403 4278190080
238.48349 625.38263 104.99593 4278190080
295.2713 858.91272 200.43216 4278190080
93.013435 873.39703 916.52936 4278190080
737.72369 871.97467 447.66846 4278190080
614.42633 624.0918 135.66136 4278190080
230.73244 357.86823 825.23212 4278190080
852.49939 598.07874 334.73996 4278190080
381.74988 967.76709 630.82788 4278190080
417.36349 155.38115 918.90222 4278190080
265.91425 172.05246 186.64285 4278190080
527.51825 410.53595 812.02551 4278190080
632.51422 705.80725 646.93817 4278190080
832.94635 798.82068 496.33517 4278190080
725.47571 512.54437 344.30988 4278190080
149.14417 102.97069 968.40167 4278190080
284.80551 333.70312 302.2699 4278190080
86.037666 162.20253 900.34857 4278190080
420.77762 543.95239 844.11566 4278190080
27.605488 961.31592 999.49683 4278190080
946.50769 203.23015 147.54927 4278190080
109.15053 730.74841 558.08521 4278190080
921.17603 339.2626 239.89249 4278190080
544.1142 148.20897 14.713179 4278190080
16.449379 873.68469 527.25757 4278190080
360.75925 1022.8289 630.22821 4278190080
305.16092 283.63437 963.93134 4278190080
607.43079 369.67203 102.13389 4278190080
483.77942 790.44965 646.0863 4278190080
303.89508 818.05511 583.40222 4278190080
279.39191 740.56281 786.63239 4278190080
426.94116 849.71332 493.38077 4278190080
985.02643 746.88934 832.64337 4278190080
200.91888 267.00354 980.85236 4278190080
215.63206 283.45291 830.53705 4278190080
742.88959 644.21216 829.36584 4278190080
349.11786 949.37311 89.000229 4278190080
289.04919 532.80396 458.67224 4278190080
391.18307 1016.5833 225.12187 4278190080
13.269394 296.47842 19.176992 4278190080
596.67163 575.8703 759.73981 4278190080
359.30399 1002.8115 585.45312 4278190080
852.68475 963.83789 308.34247 4278190080
661.32819 140.75677 575.34601 4278190080
618.18054 356.38885 858.79889 4278190080
424.71756 75.278458 479.01108 4278190080
230.08344 424.3963 404.38419 4278190080
319.08365 713.4455 937.18811 4278190080
777.75592 80.628593 929.77148 4278190080
1002.8778 93.897987 202.24988 4278190080
1022.0547 690.56958 778.12018 4278190080
757.79456 25.873592 756.9317 4278190080
319.24768 878.55835 696.76959 4278190080
627.59015 515.88654 837.52637 4278190080
178.93613 110.06704 169.91521 4278190080
13.735027 534.78461 245.19366 4278190080
492.74609 764.86804 669.58997 4278190080
897.13031 59.951683 359.03546 4278190080
810.31842 837.70758 439.66406 4278190080
716.08984 816.58539 533.56207 4278190080
918.33972 814.64014 200.13167 4278190080
672.45996 548.43469 226.00525 4278190080
405.39163 867.68237 80.563614 4278190080
78.161194 471.27252 596.45013 4278190080
915.68756 650.20862 706.51715 4278190080
61.602741 663.94366 217.30177 4278190080
306.79642 132.68979 982.1698 4278190080
976.38635 5.8200827 18.121477 4278190080
311.42184 816.13849 855.82904 4278190080
751.08594 508.22836 648.41443 4278190080
260.64798 402.56812 439.0546 4278190080
460.77963 51.028057 987.48932 4278190080
686.78491 456.41968 831.17169 4278190080
767.34851 534.58087 278.44424 4278190080
339.79865 426.2684 928.65289 4278190080
22.315825 487.87115 568.59656 4278190080
239.6176 794.66754 701.28632 4278190080
197.78738 747.05389 707.10645 4278190080
215.90886 34.475769 499.24493 4278190080
47.73793 785.56171 1007.4733 4278190080
696.1524 22.20966 386.04141 4278190080
111.20697 482.98929 437.06946 4278190080
74.696289 145.77419 893.48914 4278190080
905.86798 913.12268 404.07001 4278190080
160.31224 228.92134 830.33844 4278190080
64.965118 251.23717 294.20956 4278190080
633.56171 490.85477 64.877121 4278190080
310.84802 688.64215 811.93103 4278190080
1017.9545 904.55103 846.4068 4278190080
493.19937 952.28894 607.96851 4278190080
476.67267 624.44135 630.17816 4278190080
862.71405 735.64832 89.167458 4278190080
275.78354 810.3446 234.94165 4278190080
145.27269 692.21259 124.06435 4278190080
549.34271 852.52484 352.98569 4278190080
355.68112 917.48993 604.2229 4278190080
649.89069 527.05164 71.077637 4278190080
714.76782 837.89966 759.71979 4278190080
502.69885 831.85406 640.27081 4278190080
325.10568 301.05347 568.55975 4278190080
933.07416 777.72614 169.0011 4278190080
539.25232 616.44019 904.64941 4278190080
628.4198 892.22375 690.99396 4278190080
863.36145 13.496445 359.20657 4278190080
987.42578 562.83917 187.7314 4278190080
316.4115 918.52026 81.221336 4278190080
920.63434 544.41095 608.27295 4278190080
991.71198 235.17877 422.17261 4278190080
727.43176 737.87762 230.02669 4278190080
343.70261 38.983311 531.08014 4278190080
912.26239 972.0575 284.80627 4278190080
57.263454 487.30981 901.24646 4278190080
961.91284 91.729614 769.47021 4278190080
628.90686 955.09106 782.96667 4278190080
988.1134 918.51685 321.80582 4278190080
151.8448 210.92833 216.3261 4278190080
233.06613 107.56268 760.73706 4278190080
841.33911 75.274673 995.91583 4278190080
239.51169 802.70648 709.79346 4278190080
469.53836 122.40906 748.77679 4278190080
1000.6185 10.671419 696.83429 4278190080
261.42477 67.934875 160.14409 4278190080
138.67125 5.8477235 251.8737 4278190080
908.14148 634.75458 182.96475 4278190080
667.10815 598.86798 77.48159 4278190080
988.91394 750.71277 288.40991 4278190080
181.24005 983.77893 395.9726 4278190080
941.97711 801.11798 471.24728 4278190080
913.89294 16.629675 249.95374 4278190080
599.6864 486.16803 372.36279 4278190080
324.4632 462.78656 383.03421 4278190080
1021.2975 724.2113 450.96909 4278190080
157.44154 862.88257 456.8168 4278190080
409.31525 747.02405 67.571373 4278190080
592.28003 390.13217 666.43933 4278190080
669.7616 355.04614 393.1521 4278190080
958.17151 536.28619 352.931 4278190080
330.1441 454.26331 130.049 4278190080
801.39142 344.15625 146.67867 4278190080
27.345135 943.84265 632.84668 4278190080
399.70795 244.30586 71.633255 4278190080
782.74213 241.60333 795.8446 4278190080
209.71124 399.04489 634.72717 4278190080
666.52808 808.36011 357.75119 4278190080
734.09943 376.64014 747.88336 4278190080
376.53876 22.401724 78.92952 4278190080
769.69086 980.57324 615.2157 4278190080
98.62188 286.71735 45.479038 4278190080
228.67087 64.108749 389.63528 4278190080
375.34955 91.45388 309.47797 4278190080
1008.1962 491.1618 553.78381 4278190080
55.829506 249.90396 795.38715 4278190080
851.67407 459.6152 170.43205 4278190080
462.40121 102.14327 978.79218 4278190080
820.1524 836.24274 331.43231 4278190080
544.03577 188.78148 353.83405 4278190080
622.96527 958.47235 310.40726 4278190080
214.18102 33.094231 597.12463 4278190080
259.66006 261.76511 661.2334 4278190080
649.29535 637.11462 752.68726 4278190080
958.77332 621.31091 219.84908 4278190080
488.55716 677.14038 469.75305 4278190080
259.94434 504.81448 929.36823 4278190080
430.37637 967.2157 7.511528 4278190080
385.16858 763.3681 843.75421 4278190080
716.60089 283.4039 8.5357161 4278190080
46.434906 906.3692 967.00806 4278190080
356.84216 96.550224 1000.1023 4278190080
953.9668 356.2103 237.8674 4278190080
591.2002 1005.5056 874.98206 4278190080
319.88742 940.27899 472.29294 4278190080
539.73651 404.83615 125.43332 4278190080
1009.4896 664.78046 630.2478 4278190080
914.85779 71.15686 573.4635 4278190080
922.36932 456.32544 312.8316 4278190080
742.12354 148.9263 596.23553 4278190080
750.65924 195.36121 478.60474 4278190080
693.66736 552.20337 575.15497 4278190080
669.76965 482.17017 931.36523 4278190080
907.63702 49.370346 912.87085 4278190080
758.61908 369.25778 829.14984 4278190080
206.912 908.99426 209.98598 4278190080
332.34531 894.48376 874.76648 4278190080
962.59308 785.34155 945.92334 4278190080
512.05658 683.71088 378.24875 4278190080
824.88824 401.83444 527.17505 4278190080
397.12375 128.49371 722.53625 4278190080
875.72845 822.16107 250.73962 4278190080
426.88342 467.93069 732.90979 4278190080
334.24866 351.56772 782.28015 4278190080
223.11952 86.186798 127.53793 4278190080
28.269367 293.09879 12.532185 4278190080
238.25536 625.44409 907.01599 4278190080
89.021805 564.03723 668.35754 4278190080
10.945126 52.093819 328.06845 4278190080
389.19388 876.98206 729.90289 4278190080
916.3689 250.10579 858.39661 4278190080
614.90515 101.83426 656.55768 4278190080
865.64478 528.71765 100.48837 4278190080
574.55463 862.96631 452.05609 4278190080
332.83475 62.085842 538.24286 4278190080
460.37268 90.355209 831.34167 4278190080
472.90488 328.61057 432.78577 4278190080
355.92084 417.63235 996.823 4278190080
0.27840424 428.57748 24.916813 4278190080
328.34686 817.77136 901.89886 4278190080
34.249771 710.14026 128.00464 4278190080
892.64636 301.04544 229.8389 4278190080
525.20404 142.69023 758.55658 4278190080
625.69244 717.24481 597.52289 4278190080
53.74852 26.079582 659.6087 4278190080
591.99139 486.45227 749.96393 4278190080
399.33307 959.35712 54.574501 4278190080
832.11884 291.27795 472.20688 4278190080
804.94183 291.55637 900.78436 4278190080
829.85864 619.90326 694.55573 4278190080
707.75751 654.15302 380.69601 4278190080
835.76215 522.79938 681.74146 4278190080
41.601067 24.003462 824.43164 4278190080
800.15765 649.69592 517.67651 4278190080
373.68054 703.4444 543.7561 4278190080
9.2892599 271.43582 6.2083397 4278190080
759.25317 670.76892 965.56549 4278190080
813.8277 478.88776 232.84343 4278190080
262.03458 259.82962 524.39978 4278190080
138.81894 65.688271 120.30303 4278190080
833.37469 773.4458 774.45605 4278190080
190.07066 585.20795 273.25543 4278190080
871.81213 626.80902 297.25888 4278190080
672.24377 402.96667 946.95477 4278190080
165.92027 776.64722 626.39917 4278190080
709.67633 785.93646 897.83502 4278190080
715.8847 521.18964 544.60394 4278190080
657.45013 311.01736 1023.4917 4278190080
890.29358 573.05194 259.32129 4278190080
390.69339 711.87085 325.00955 4278190080
510.99643 521.24554 74.455345 4278190080
261.45245 711.31622 659.66333 4278190080
534.70789 559.1283 262.47232 4278190080
831.9668 207.3721 665.43896 4278190080
754.92157 373.29239 418.08618 4278190080
357.32074 58.968739 180.02263 4278190080
231.15576 774.85345 701.21228 4278190080
775.7597 408.30359 1012.2296 4278190080
775.25134 274.5972 561.28156 4278190080
10.572624 665.29059 249.15245 4278190080
335.58218 152.28699 770.39801 4278190080
410.03754 413.73944 457.7142 4278190080
45.700832 948.44733 1016.8425 4278190080
308.17316 756.41406 200.21461 4278190080
973.61218 487.33563 573.50702 4278190080
367.69833 844.65637 632.47577 4278190080
547.72095 51.812145 383.32916 4278190080
224.93326 827.57184 791.63275 4278190080
213.1629 578.82318 42.229958 4278190080
774.44446 589.39581 707.52051 4278190080
1023.5969 924.97797 859.8075 4278190080
769.99487 311.0155 249.54695 4278190080
203.70909 356.71634 173.99428 4278190080
196.55161 664.88947 930.40833 4278190080
396.76624 614.50165 393.74399 4278190080
970.27325 982.20001 214.40036 4278190080
578.74896 505.92096 266.21252 4278190080
962.07812 730.85419 69.784332 4278190080
729.71094 944.01709 648.60748 4278190080
771.94086 694.46155 214.0033 4278190080
455.46143 694.05847 114.98126 4278190080
291.26892 440.05338 425.99677 4278190080
540.81592 643.76245 782.71307 4278190080
714.81018 840.31409 423.60257 4278190080
621.21851 213.08032 14.104219 4278190080
1014.9625 159.35355 996.3042 4278190080
205.36287 738.10254 478.22516 4278190080
471.57538 676.18066 185.07938 4278190080
541.35974 381.8916 105.09648 4278190080
165.96721 129.83247 799.55804 4278190080
379.97052 585.29388 469.61655 4278190080
494.95178 876.56281 909.66992 4278190080
920.94855 393.37869 529.43243 4278190080
679.66162 84.188858 345.74652 4278190080
79.264191 705.40735 558.82684 4278190080
93.368408 696.36987 718.18042 4278190080
65.672615 901.73273 432.28293 4278190080
543.89777 349.30811 84.463585 4278190080
728.97717 890.66785 466.35519 4278190080
834.07361 32.63504 596.18762 4278190080
609.63171 412.60556 157.48154 4278190080
55.248257 907.55731 10.044352 4278190080
964.91821 804.50586 403.42307 4278190080
470.35062 460.16745 487.61191 4278190080
816.09717 539.43164 169.01929 4278190080
350.92398 632.80005 865.38916 4278190080
45.104366 698.47266 743.12189 4278190080
477.38727 218.37045 68.430023 4278190080
561.85089 947.3476 959.09784 4278190080
4.206049 757.42126 991.73291 4278190080
600.39368 343.05295 380.33844 4278190080
757.87524 398.30121 263.89575 4278190080
767.91962 339.21942 44.401608 4278190080
147.34265 809.57001 504.56906 4278190080
634.95459 601.66718 20.000729 4278190080
803.97388 952.59113 652.80078 4278190080
645.36304 997.6955 327.27347 4278190080
364.48492 451.08279 545.64392 4278190080
432.91495 1012.9337 468.99155 4278190080
368.01279 1017.1397 202.4128 4278190080
335.7457 593.53339 545.46576 4278190080
716.08411 327.40866 943.76697 4278190080
979.97992 71.328239 258.98636 4278190080
0.38149929 218.67088 44.556393 4278190080
504.95056 853.62543 646.22357 4278190080
524.95129 633.5993 574.8147 4278190080
153.75209 254.96231 548.51019 4278190080
481.02557 619.44727 999.59302 4278190080
2.6695051 28.362179 988.52667 4278190080
471.66104 396.37497 981.66638 4278190080
674.07385 732.12067 551.19977 4278190080
195.5396 424.2048 878.60846 4278190080
115.30655 380.18469 949.93671 4278190080
374.29291 380.56619 144.60757 4278190080
418.8493 885.51678 998.23303 4278190080
41.072861 386.46805 607.83234 4278190080
615.88757 540.22015 862.79462 4278190080
140.39778 1021.2457 458.24188 4278190080
115.99078 1023.9152 486.60406 4278190080
80.517441 471.57629 882.979 4278190080
38.183819 121.65013 591.09967 4278190080
589.38361 317.18973 1015.3045 4278190080
443.99203 432.49628 371.48917 4278190080
369.92874 806.78918 752.05536 4278190080
514.53632 201.63849 613.57214 4278190080
488.76932 242.71135 1000.0402 4278190080
72.601646 858.59894 516.26031 4278190080
935.3963 998.9967 513.5061 4278190080
369.63815 90.987473 513.42133 4278190080
856.24219 171.50491 984.99762 4278190080
715.22125 209.68874 82.647728 4278190080
282.32092 799.07233 399.83746 4278190080
273.6254 219.06439 832.33374 4278190080
645.11456 588.9931 615.12292 4278190080
373.16995 79.529419 816.76141 4278190080
986.74207 568.29877 35.472775 4278190080
962.78223 640.90039 894.07172 4278190080
455.0426 552.29669 869.06836 4278190080
968.54865 921.93481 960.05585 4278190080
457.96997 754.177 107.56077 4278190080
418.96756 445.39825 317.24951 4278190080
501.6153 727.71918 92.321838 4278190080
901.45276 1001.3445 311.38623 4278190080
709.7865 622.45917 900.37933 4278190080
300.90942 995.62909 979.90875 4278190080
93.67083 958.37115 524.20752 4278190080
129.1436 897.15338 141.10791 4278190080
1023.2153 328.19598 693.4046 4278190080
868.28369 272.74466 591.33942 4278190080
804.33954 730.71466 321.51642 4278190080
911.90033 125.68221 766.91467 4278190080
205.14981 627.29749 470.63382 4278190080
297.47165 504.75027 447.97839 4278190080
608.85785 190.53676 46.437534 4278190080
485.23721 491.44617 18.066624 4278190080
441.146 585.117 976.43781 4278190080
965.35352 714.26062 849.59119 4278190080
82.461411 713.47589 153.78717 4278190080
775.86597 557.75958 426.53183 4278190080
343.20538 338.09912 133.24648 4278190080
664.7218 225.99945 258.92868 4278190080
407.63644 431.14926 886.2262 4278190080
878.27026 728.62091 366.97644 4278190080
302.24866 313.47879 557.51324 4278190080
348.68619 798.716 24.959391 4278190080
366.75281 215.862 610.07642 4278190080
319.19058 157.21552 300.33701 4278190080
144.78177 239.67693 1013.8129 4278190080
298.56894 1015.5429 547.57251 4278190080
725.10077 334.74829 885.67163 4278190080
858.34723 999.47009 87.671097 4278190080
93.275932 383.10654 518.82037 4278190080
979.50214 237.37679 223.44127 4278190080
322.47858 539.62543 536.92004 4278190080
879.99176 888.31165 311.63605 4278190080
904.95117 231.06442 527.49805 4278190080
491.02759 550.255 684.71356 4278190080
791.36456 695.03674 924.3905 4278190080
781.17749 993.60571 915.93341 4278190080
304.75003 694.70648 226.6817 4278190080
166.42169 529.05377 202.15179 4278190080
254.09279 622.32965 585.2583 4278190080
772.91315 577.83179 822.63513 4278190080
996.35443 900.31036 338.26056 4278190080
509.27444 756.30212 202.57217 4278190080
820.91052 637.2533 433.6366 4278190080
324.40857 104.2809 983.8916 4278190080
1009.1221 895.64551 654.92834 4278190080
909.51263 652.823 624.53406 4278190080
801.44604 957.57306 295.24057 4278190080
4.1277785 99.99472 824.29431 4278190080
206.27957 354.08749 422.62399 4278190080
791.5379 103.00064 1000.4557 4278190080
590.17303 75.355042 876.76611 4278190080
928.43359 584.62952 609.0683 4278190080
107.00574 381.54001 222.32161 4278190080
540.64233 705.94861 326.60251 4278190080
500.53391 691.07074 198.248 4278190080
131.46228 576.58337 851.07098 4278190080
755.99634 354.02945 784.64404 4278190080
27.236914 358.15723 884.63873 4278190080
851.53125 564.43683 214.72626 4278190080
250.1552 331.9747 317.7269 4278190080
226.61098 922.14771 393.08194 4278190080
79.377106 826.5813 977.71143 4278190080
688.44537 933.58704 335.25143 4278190080
910.76697 450.22934 17.20001 4278190080
213.36951 950.76324 708.27075 4278190080
411.61752 58.225529 260.85413 4278190080
238.68851 814.22186 614.88361 4278190080
1023.3325 841.4588 973.04083 4278190080
883.97131 668.98999 513.4776 4278190080
74.697556 919.1452 845.45233 4278190080
392.42444 121.75619 743.60004 4278190080
785.50641 201.1333 546.18134 4278190080
739.21783 889.57867 455.76834 4278190080
50.469246 776.3457 905.99768 4278190080
67.669258 989.71521 832.76093 4278190080
775.94 377.3327 890.98645 4278190080
12.794128 616.02118 681.20831 4278190080
627.67773 615.35376 498.66711 4278190080
576.71851 475.32504 143.65714 4278190080
66.196159 550.02264 38.802345 4278190080
911.6485 942.44708 160.55853 4278190080
631.24854 703.95343 361.69183 4278190080
153.42986 419.17126 227.27051 4278190080
609.19818 469.6405 1003.6162 4278190080
491.19586 537.30975 969.33136 4278190080
299.95679 289.24979 322.66406 4278190080
166.94324 302.04391 938.68524 4278190080
848.15155 929.72162 530.039 4278190080
322.8187 482.44016 1005.3641 4278190080
466.47583 548.63629 531.38672 4278190080
505.27817 436.28482 449.83377 4278190080
665.83673 43.533344 129.78722 4278190080
3.5285354 196.96321 548.9585 4278190080
230.79904 806.16138 1018.599 4278190080
210.41524 273.35727 531.90881 4278190080
155.7466 573.31409 821.15857 4278190080
478.41068 740.25732 99.202461 4278190080
393.09595 564.40887 4.924078 4278190080
923.13495 887.2276 487.36423 4278190080
904.49902 329.7034 12.000546 4278190080
411.88574 834.98157 448.28537 4278190080
861.71948 476.81827 491.8187 4278190080
991.50671 480.3468 688.78192 4278190080
516.46521 711.14587 470.9433 4278190080
511.06421 921.5611 744.3006 4278190080
18.973 53.307693 293.61462 4278190080
840.13153 531.71838 9.871933 4278190080
939.33405 924.81427 574.28082 4278190080
944.25812 823.94928 437.50839 4278190080
407.62231 704.4483 767.21179 4278190080
419.62286 92.33403 578.19336 4278190080
867.9082 954.05353 31.011631 4278190080
335.72693 921.56024 511.35846 4278190080
0.50883484 414.02545 198.5043 4278190080
471.45215 925.08966 96.065392 4278190080
191.75272 944.06268 149.37309 4278190080
485.36734 760.19421 681.09143 4278190080
495.23929 675.52826 581.90576 4278190080
45.520088 595.78638 381.85501 4278190080
483.02847 1003.4087 62.303303 4278190080
226.24025 399.03156 154.63733 4278190080
804.43359 242.93979 84.690865 4278190080
835.44525 578.66669 1006.2511 4278190080
322.80368 579.17554 396.27658 4278190080
521.30798 26.627687 297.36624 4278190080
617.37335 218.3804 217.42892 4278190080
766.74646 703.74774 977.62317 4278190080
423.83792 174.98701 629.15143 4278190080
1005.7437 220.5071 200.93776 4278190080
363.59869 703.53558 180.34644 4278190080
425.90198 929.77582 579.37799 4278190080
580.53931 710.20941 822.31775 4278190080
665.23016 521.65466 376.9845 4278190080
647.48132 844.45837 956.16003 4278190080
19.757872 341.76633 982.78772 4278190080
317.12411 959.13971 177.16812 4278190080
534.55304 701.88617 880.91583 4278190080
488.17621 101.72411 31.902872 4278190080
93.327614 83.467789 252.40997 4278190080
294.26538 447.06647 955.94556 4278190080
474.61182 872.96844 861.72137 4278190080
29.989799 429.50778 547.93079 4278190080
852.30756 70.737953 45.585464 4278190080
205.29205 718.21924 890.04382 4278190080
137.45209 737.97711 207.81015 4278190080
96.239807 31.101246 142.94987 4278190080
273.40793 565.6543 844.83606 4278190080
130.32379 29.830488 946.56018 4278190080
162.22665 123.1581 6.0279689 4278190080
414.63663 417.42346 453.09442 4278190080
346.58218 892.03528 302.0629 4278190080
184.30354 922.02509 731.57068 4278190080
732.23438 750.33264 802.30859 4278190080
777.81982 955.62469 496.52786 4278190080
643.86365 69.076797 210.50499 4278190080
851.67377 165.3166 241.60625 4278190080
994.62366 438.72455 807.26056 4278190080
815.45972 569.04834 837.091 4278190080
738.0199 731.27496 960.24915 4278190080
744.04785 121.91161 353.67258 4278190080
173.1423 468.4938 221.70787 4278190080
475.2052 652.79736 119.73294 4278190080
182.77585 361.03168 870.06561 4278190080
985.08447 114.8515 801.69031 4278190080
457.61234 758.71515 870.76709 4278190080
668.11731 586.38892 12.083706 4278190080
909.72357 557.01257 450.80823 4278190080
692.98413 348.47229 1019.8566 4278190080
506.07513 62.492188 727.13153 4278190080
442.32425 806.54004 849.04315 4278190080
795.99683 979.68237 293.53696 4278190080
1017.7047 430.88757 946.33429 4278190080
113.43764 613.66339 283.366 4278190080
983.50323 574.74786 398.2175 4278190080
761.19354 8.360218 132.93262 4278190080
607.96063 676.47754 719.32153 4278190080
620.04431 562.20111 252.33408 4278190080
46.852581 231.18523 600.80634 4278190080
42.709145 737.26038 663.29852 4278190080
769.8407 155.58459 445.83859 4278190080
594.88385 951.58142 401.52097 4278190080
888.42084 945.28613 832.40851 4278190080
810.75513 34.723755 422.07196 4278190080
70.121101 1018.227 996.81982 4278190080
468.33859 755.42053 1005.1801 4278190080
601.27118 339.38116 657.65759 4278190080
296.59271 959.42548 195.85872 4278190080
548.92682 1006.2781 427.04395 4278190080
125.73315 24.987228 140.30429 4278190080
789.03168 794.82794 295.88889 4278190080
210.87032 365.71179 223.47029 4278190080
612.3913 230.1326 144.75641 4278190080
420.7998 16.887718 179.48016 4278190080
842.87177 87.00882 173.70715 4278190080
815.69159 555.34741 929.12769 4278190080
796.87164 132.61861 244.50883 4278190080
430.52924 429.2113 179.93434 4278190080
626.38794 978.13812 162.21242 4278190080
29.431908 79.871269 187.19965 4278190080
169.73621 868.90295 982.02759 4278190080
465.62509 55.773289 323.73935 4278190080
689.0954 668.16455 553.87195 4278190080
833.85181 64.964394 570.7597 4278190080
1013.332 907.83618 657.76849 4278190080
163.03911 699.52777 189.11591 4278190080
68.166786 472.39941 321.7345 4278190080
312.67563 902.92865 750.9458 4278190080
492.60995 505.31662 705.08392 4278190080
654.82239 534.74854 784.9552 4278190080
842.02203 704.48474 629.85815 4278190080
800.04962 146.1098 685.63147 4278190080
99.788979 835.2052 329.79605 4278190080
653.66095 645.05695 394.76044 4278190080
200.42061 634.38892 278.59659 4278190080
858.18909 797.42804 978.12439 4278190080
23.305008 865.59479 426.52377 4278190080
345.03952 154.27043 305.45242 4278190080
71.985344 646.88037 810.76904 4278190080
777.06927 277.70279 321.51755 4278190080
538.02448 95.724838 2.0022726 4278190080
143.88266 895.77448 148.11208 4278190080
829.51416 995.56342 983.31726 4278190080
135.31018 625.22437 604.37421 4278190080
530.07062 825.64496 214.76312 4278190080
808.66724 659.83411 1012.1912 4278190080
762.79156 683.1391 853.78595 4278190080
165.31534 4.1786089 1008.0564 4278190080
470.76776 76.163948 630.93677 4278190080
257.5368 853.23322 908.63959 4278190080
579.05432 367.25772 1004.3644 4278190080
581.05664 511.14038 876.13885 4278190080
729.1687 316.65451 847.70233 4278190080
688.48596 451.96469 448.92667 4278190080
268.86014 982.03528 250.57166 4278190080
483.62326 766.70251 910.40576 4278190080
471.81442 505.49408 569.54486 4278190080
301.60034 670.80945 573.72345 4278190080
285.65674 117.57719 649.88739 4278190080
916.59351 375.11398 479.12064 4278190080
801.23309 954.16833 846.37836 4278190080
781.59747 511.22495 333.51871 4278190080
633.73639 216.39363 650.17322 4278190080
457.43869 904.87958 78.137924 4278190080
906.36536 149.73972 36.173225 4278190080
132.93703 633.36298 802.87573 4278190080
19.342768 81.177399 284.36984 4278190080
588.88763 382.77774 955.17926 4278190080
138.61105 668.43451 48.75647 4278190080
788.49847 561.02802 423.87045 4278190080
243.61908 338.26108 354.03879 4278190080
65.997421 95.858589 865.26373 4278190080
399.51614 729.59497 57.65736 4278190080
25.689379 163.03365 962.53693 4278190080
103.8273 45.399002 88.276642 4278190080
140.00053 178.33603 721.63965 4278190080
942.87628 197.67879 802.81702 4278190080
203.24611 786.56641 161.59477 4278190080
134.42538 925.17743 830.02924 4278190080
183.18185 689.6759 367.05725 4278190080
607.05231 933.29498 705.31836 4278190080
961.09113 999.29242 801.17694 4278190080
802.35486 374.80856 506.77188 4278190080
860.01221 400.49792 669.80554 4278190080
798.54913 504.32523 715.20453 4278190080
886.82574 644.32574 893.54059 4278190080
584.46539 563.20203 67.21936 4278190080
363.28241 766.44818 853.78577 4278190080
524.8772 900.87354 754.9632 4278190080
330.90643 60.055401 420.63913 4278190080
697.96368 667.10773 329.93411 4278190080
379.28204 604.19885 305.2265 4278190080
156.45898 382.55365 680.0351 4278190080
663.2309 218.56584 56.533005 4278190080
309.03641 1017.115 560.85822 4278190080
0.24094677 879.94073 181.18401 4278190080
893.78149 440.4061 744.38605 4278190080
961.00085 803.68854 486.8342 4278190080
790.78662 304.5657 363.70773 4278190080
521.74982 635.47211 423.76315 4278190080
942.38898 309.43585 66.870857 4278190080
248.32307 688.7179 671.0697 4278190080
553.54956 845.17688 29.623337 4278190080
209.58466 484.40775 248.18918 4278190080
266.11768 793.44415 241.30415 4278190080
826.97589 793.68512 97.244865 4278190080
1008.1599 663.46661 537.651 4278190080
728.54596 600.46747 317.33948 4278190080
191.38014 367.25409 621.90515 4278190080
555.08789 889.00397 233.37732 4278190080
978.85101 807.39288 542.81317 4278190080
21.72188 31.715981 207.53104 4278190080
692.79156 585.26556 28.707901 4278190080
722.41492 794.85022 513.11566 4278190080
970.60406 36.967884 282.55978 4278190080
187.90823 863.94379 52.244877 4278190080
285.15311 848.1037 715.71149 4278190080
822.80408 552.64966 292.17896 4278190080
116.14355 744.02979 659.43304 4278190080
738.04877 275.11768 524.43701 4278190080
971.42603 229.96869 307.82993 4278190080
490.2392 251.69057 339.5459 4278190080
697.77026 944.48212 924.81146 4278190080
726.47815 642.89703 695.66168 4278190080
215.59378 589.5011 732.62958 4278190080
498.15356 777.40936 572.57336 4278190080
550.39844 38.562439 396.67706 4278190080
242.10992 861.36652 949.32666 4278190080
534.28888 977.51007 669.35645 4278190080
169.72194 691.55878 944.47412 4278190080
694.15894 638.98486 150.44283 4278190080
1001.9889 105.22406 402.13339 4278190080
317.53476 802.99432 322.61551 4278190080
218.34624 505.47244 965.51251 4278190080
914.00793 721.06622 531.01367 4278190080
622.63751 195.21979 284.423 4278190080
171.21088 745.61823 322.98541 4278190080
567.88794 987.72815 160.35194 4278190080
493.21463 498.01703 113.86201 4278190080
138.57109 667.73895 805.42084 4278190080
59.045227 337.89792 420.40567 4278190080
209.48805 315.88681 525.62976 4278190080
611.62146 633.42157 304.62402 4278190080
934.23694 851.76782 810.0965 4278190080
875.74945 741.77576 507.16272 4278190080
382.76312 340.41327 702.38251 4278190080
667.1861 511.62415 424.00073 4278190080
990.17157 55.512062 387.72891 4278190080
126.52348 548.72668 885.74597 4278190080
240.38548 687.29779 529.48492 4278190080
21.806299 746.34302 867.38287 4278190080
442.21198 955.83105 159.26965 4278190080
967.84167 543.45245 792.69122 4278190080
248.46574 453.68942 620.45905 4278190080
34.562222 305.4389 338.2348 4278190080
541.72491 688.20203 678.64807 4278190080
220.10744 331.38815 166.27219 4278190080
644.10815 297.55969 221.78424 4278190080
7.8370891 424.08319 770.51093 4278190080
893.58301 664.46869 433.80869 4278190080
399.06796 686.27496 156.1517 4278190080
242.45081 104.48694 87.982742 4278190080
401.72046 48.32864 631.43524 4278190080
170.4117 296.79437 61.124645 4278190080
790.87073 331.3566 366.56354 4278190080
105.10552 873.08154 30.765579 4278190080
783.7536 69.188972 362.15372 4278190080
950.02576 713.29718 659.71344 4278190080
147.81 721.13422 59.796608 4278190080
918.32092 590.71729 724.26526 4278190080
328.12961 989.78522 386.54025 4278190080
484.28131 208.23605 491.02719 4278190080
572.26404 609.95654 539.35583 4278190080
179.6993 780.36823 836.15021 4278190080
240.82393 547.23895 143.50681 4278190080
607.38751 652.34448 1016.5883 4278190080
638.15308 412.09805 61.777306 4278190080
1000.3068 338.12381 775.07446 4278190080
636.0202 485.93381 472.20871 4278190080
695.81683 380.25473 38.925987 4278190080
396.08212 708.38434 4.711226 4278190080
782.62238 168.66565 212.94728 4278190080
249.64955 740.92975 822.90381 4278190080
789.00537 920.62903 579.27203 4278190080
601.15558 137.45294 102.51096 4278190080
744.66241 744.84045 754.85541 4278190080
737.25073 358.9935 142.95348 4278190080
799.02802 335.30029 481.07727 4278190080
550.10248 971.3205 967.01105 4278190080
1022.3112 643.13733 323.26581 4278190080
37.237202 15.21946 7.6501341 4278190080
41.948425 797.8418 176.3158 4278190080
254.89571 23.491383 917.24548 4278190080
53.7995 812.49677 813.87451 4278190080
633.07153 389.65237 951.32745 4278190080
735.58246 110.31476 672.16791 4278190080
466.4379 847.56549 7.1613946 4278190080
609.39136 622.59351 342.4617 4278190080
66.468666 148.69603 289.7822 4278190080
9.479743 147.00725 932.91956 4278190080
332.74554 184.24445 948.13898 4278190080
340.39566 226.19287 721.98083 4278190080
516.71149 481.08856 745.47223 4278190080
409.95697 534.88806 533.96899 4278190080
199.8315 143.95958 923.62134 4278190080
127.15897 879.54205 9.9361057 4278190080
799.32684 321.97995 857.50159 4278190080
806.48828 931.37134 456.09512 4278190080
124.94994 997.84003 604.79114 4278190080
414.73215 1007.3198 751.7984 4278190080
323.6517 316.06528 936.04285 4278190080
247.7907 656.46094 138.23573 4278190080
969.77155 149.17242 619.32428 4278190080
