# .PCD v0.7 - Point Cloud Data file format
VERSION 0.7
FIELDS x y z rgb
SIZE 4 4 4 4
TYPE F F F U
COUNT 1 1 1 1
WIDTH 1176
HEIGHT 1
VIEWPOINT 0 0 0 1 0 0 0
POINTS 1176
DATA ascii
894.53192 670.99237 525.89539 4278190080
998.44275 245.45125 400.29694 4278190080
597.64703 639.48108 113.78554 4278190080
559.26404 75.948456 525.53918 4278190080
199.23027 466.77637 636.77936 4278190080
563.04254 415.1925 376.50824 4278190080
317.42715 143.9071 908.09924 4278190080
281.44669 988.67377 758.63434 4278190080
55.462933 383.99106 1002.467 4278190080
348.41818 91.395279 392.07846 4278190080
728.35553 985.92719 39.070827 4278190080
230.25092 960.37 284.52206 4278190080
630.54785 534.01697 924.00311 4278190080
744.33337 69.280998 999.9516 4278190080
245.8726 268.51126 442.72794 4278190080
882.65198 831.55377 857.92047 4278190080
235.1602 124.98096 1001.8276 4278190080
119.25945 406.42764 966.50134 4278190080
877.8938 461.89059 326.4924 4278190080
856.36072 810.30878 417.8877 4278190080
224.43918 514.66431 379.81488 4278190080
263.51001 744.91522 316.18484 4278190080
548.0321 351.46307 850.20184 4278190080
448.03522 71.796471 919.48285 4278190080
423.98679 317.66907 163.99411 4278190080
866.71472 176.32104 995.54791 4278190080
700.63519 411.48123 96.528862 4278190080
678.46277 530.74072 502.95651 4278190080
620.96411 384.63446 964.84711 4278190080
947.45654 216.99519 751.15588 4278190080
341.34424 441.43439 241.82014 4278190080
721.15912 704.9444 986.73535 4278190080
13.343941 228.97647 314.19843 4278190080
863.54578 677.01166 385.99487 4278190080
759.02863 76.998474 703.66394 4278190080
923.02271 943.7132 879.98499 4278190080
894.57062 620.34845 267.46625 4278190080
991.09949 274.81122 798.20697 4278190080
470.05597 895.77533 158.84142 4278190080
410.90308 819.23187 375.83661 4278190080
138.05893 136.57613 817.271 4278190080
379.87909 857.73523 498.21536 4278190080
342.61441 871.07916 727.19183 4278190080
656.81281 710.62494 380.20349 4278190080
18.807722 445.65353 457.20197 4278190080
722.47168 344.67624 376.91519 4278190080
578.45667 215.24684 997.26361 4278190080
845.92297 182.3463 248.07483 4278190080
620.12988 652.40228 119.85017 4278190080
778.97131 39.305351 939.08203 4278190080
130.80791 177.36429 51.658184 4278190080
948.07886 557.24335 909.39343 4278190080
422.29425 899.85779 756.4726 4278190080
125.48606 532.67059 443.09753 4278190080
505.68958 551.47833 888.75104 4278190080
962.89154 249.95003 209.42731 4278190080
315.80673 828.40674 424.67413 4278190080
289.07034 650.32965 607.02045 4278190080
537.1452 246.45956 235.42273 4278190080
656.99536 1.4308667 274.72809 4278190080
572.07739 132.23877 452.09238 4278190080
623.7356 56.317657 1009.3358 4278190080
509.129 478.61191 885.19348 4278190080
241.60159 604.09796 393.86414 4278190080
684.6991 85.787529 945.34247 4278190080
549.4502 24.679073 171.2925 4278190080
758.8775 340.48581 999.69922 4278190080
159.55164 629.55615 626.02887 4278190080
766.57208 142.70134 872.48846 4278190080
1001.9948 799.69672 873.91931 4278190080
252.72289 347.77408 1006.1581 4278190080
704.81525 971.5097 38.475742 4278190080
690.151 456.63867 517.08765 4278190080
551.34448 698.2403 97.1856 4278190080
945.20862 358.93939 182.97313 4278190080
866.55109 908.38959 207.65221 4278190080
13.843571 643.26709 548.138 4278190080
1013.5428 802.81866 153.69418 4278190080
615.57166 545.39075 296.39551 4278190080
464.06012 523.38556 72.092209 4278190080
313.97943 776.10846 419.8663 4278190080
296.13751 456.92371 367.37598 4278190080
334.61325 123.07468 824.01465 4278190080
851.70093 674.41919 498.25494 4278190080
948.88647 595.62781 857.19434 4278190080
107.85963 438.17886 741.58392 4278190080
315.51184 452.02243 360.85098 4278190080
863.64984 441.56522 139.66968 4278190080
1017.344 33.13689 685.06042 4278190080
289.73953 497.19702 184.44601 4278190080
361.83173 811.17645 960.55444 4278190080
781.69806 83.313957 393.47818 4278190080
125.07402 417.92722 516.55286 4278190080
949.08868 245.62811 166.97203 4278190080
423.34363 170.51462 762.59979 4278190080
256.53796 278.37424 176.77867 4278190080
998.12189 593.88605 628.80109 4278190080
334.97287 433.53592 46.36631 4278190080
474.64255 426.87991 79.503197 4278190080
135.70297 716.61945 576.7002 4278190080
320.14899 54.451195 363.87665 4278190080
256.70346 836.14923 447.19061 4278190080
650.18164 961.22327 865.1178 4278190080
142.7345 886.31195 86.745941 4278190080
309.70654 285.65558 257.26056 4278190080
48.306339 542.19354 535.63483 4278190080
225.08501 516.31543 105.52088 4278190080
853.88611 851.28827 539.05676 4278190080
900.25238 301.93085 965.93671 4278190080
979.75562 437.63382 658.55615 4278190080
532.45581 757.78278 713.00739 4278190080
896.33246 1014.4863 525.15662 4278190080
319.52307 640.66791 462.37985 4278190080
160.64088 783.4024 324.6918 4278190080
247.38683 69.108917 610.34735 4278190080
504.6474 117.41525 128.54089 4278190080
16.282198 342.50027 644.85632 4278190080
121.80308 172.38637 472.14462 4278190080
660.85986 48.638775 774.07544 4278190080
602.79657 4.394383 187.70926 4278190080
237.35275 536.85022 945.49207 4278190080
950.36011 409.18265 935.97833 4278190080
451.51672 728.70575 552.64618 4278190080
913.89661 889.34662 312.04858 4278190080
214.58838 112.73344 381.1575 4278190080
824.93573 617.38086 498.57275 4278190080
953.47662 633.66302 841.073 4278190080
574.33295 755.46613 1013.4594 4278190080
22.477562 392.32599 38.098164 4278190080
796.55298 995.12256 42.492546 4278190080
984.26227 208.47533 579.34277 4278190080
905.75433 134.83545 988.52539 4278190080
817.7326 586.35217 693.23114 4278190080
346.37881 476.24878 558.57776 4278190080
658.42743 690.83716 671.31116 4278190080
15.584923 491.77289 264.69202 4278190080
514.15771 421.24954 898.35504 4278190080
331.23071 995.58246 629.82117 4278190080
320.69009 1018.0601 1022.1472 4278190080
358.78827 790.61304 993.26971 4278190080
401.28082 750.87531 177.74503 4278190080
980.62354 632.62964 312.58047 4278190080
945.14899 426.36224 898.93268 4278190080
614.38007 772.74109 351.18146 4278190080
148.95782 407.16849 18.018608 4278190080
820.26904 422.75342 509.7915 4278190080
60.961033 936.91113 931.04102 4278190080
959.3161 244.14182 902.62354 4278190080
565.13727 564.83191 896.68353 4278190080
563.28436 923.62018 663.29657 4278190080
532.55408 300.901 390.17191 4278190080
710.29913 257.52454 1022.8015 4278190080
1022.8796 178.67349 425.16379 4278190080
897.81226 793.05359 173.90486 4278190080
224.99371 942.01141 581.07336 4278190080
243.01233 738.28046 1003.8268 4278190080
752.80383 799.24146 916.73792 4278190080
659.84485 734.55756 136.87971 4278190080
538.46838 275.69479 701.71161 4278190080
411.15192 838.97919 601.33179 4278190080
50.448513 347.53323 902.23279 4278190080
440.62042 33.832348 135.75734 4278190080
439.42197 32.711941 314.43085 4278190080
864.58575 930.52423 83.484428 4278190080
14.490605 131.51791 1.4958477 4278190080
595.56396 374.53024 739.77631 4278190080
575.39075 103.33407 515.01776 4278190080
468.12866 763.17889 225.57529 4278190080
605.00836 277.64728 501.27008 4278190080
282.72 688.79919 316.24924 4278190080
884.05182 739.24774 663.78247 4278190080
762.28461 155.86813 697.61481 4278190080
898.04199 595.2901 730.32678 4278190080
188.47281 435.87582 636.85095 4278190080
271.95724 450.36642 768.3689 4278190080
273.45309 21.93041 118.89912 4278190080
1013.2294 597.32117 222.2332 4278190080
504.2471 41.449829 985.41211 4278190080
729.82239 646.45819 239.0594 4278190080
207.09247 929.17822 927.85864 4278190080
523.34167 789.23004 643.10632 4278190080
163.12418 527.51465 798.97449 4278190080
860.73901 401.55661 370.26456 4278190080
567.06573 590.02942 806.14038 4278190080
179.9167 861.98669 232.50684 4278190080
948.28558 111.43977 254.43726 4278190080
43.184719 100.66914 851.75842 4278190080
265.41791 604.91626 893.20825 4278190080
226.83003 310.73865 515.66644 4278190080
465.88943 517.83112 420.84467 4278190080
369.74805 17.172817 186.07469 4278190080
1012.8544 180.29698 713.58936 4278190080
787.82886 17.035973 91.145973 4278190080
134.09343 584.10175 681.17542 4278190080
940.23383 764.01843 519.16211 4278190080
148.74068 688.30402 630.60187 4278190080
403.17792 731.48871 731.271 4278190080
230.93636 996.90668 312.18723 4278190080
100.1446 199.73668 622.9259 4278190080
615.81104 665.6261 116.75699 4278190080
12.655716 11.37418 133.92981 4278190080
198.73041 0.22856951 314.22681 4278190080
912.31976 788.05743 331.26276 4278190080
1003.4658 922.15088 915.3645 4278190080
660.64111 838.3847 655.38293 4278190080
155.80322 987.12537 319.68692 4278190080
786.40509 366.30331 27.175661 4278190080
493.67606 597.23969 0.082312107 4278190080
805.86328 697.38428 199.819 4278190080
404.78915 289.19531 865.44513 4278190080
521.54614 301.85104 876.81927 4278190080
655.47595 500.58145 877.04785 4278190080
969.70276 388.90118 641.10529 4278190080
276.96552 368.36694 539.25616 4278190080
168.33002 5.0080757 353.64087 4278190080
823.71289 160.81131 316.76627 4278190080
119.39984 947.21637 683.06958 4278190080
146.5755 416.89243 256.30923 4278190080
146.65782 198.75572 953.69348 4278190080
346.47681 603.54492 218.88881 4278190080
187.92194 101.09105 520.73987 4278190080
40.741234 756.56702 1021.3213 4278190080
917.78912 702.26978 386.22247 4278190080
534.89441 979.23529 754.58942 4278190080
50.150585 123.56531 759.59747 4278190080
403.79147 947.2782 920.40881 4278190080
720.55774 42.67807 843.62518 4278190080
379.62729 189.25357 236.51761 4278190080
635.93652 335.91138 435.27335 4278190080
565.63 682.38818 14.818228 4278190080
784.51886 870.31012 115.90928 4278190080
281.25867 911.05139 872.47632 4278190080
278.57996 804.84045 550.74609 4278190080
664.80243 315.73489 505.98135 4278190080
395.39185 365.88547 629.54669 4278190080
130.98932 769.67694 552.82489 4278190080
27.398109 466.23465 595.50299 4278190080
871.02325 845.86194 784.75653 4278190080
83.540886 457.79849 96.667938 4278190080
518.81421 1023.4285 779.05615 4278190080
533.63245 783.94739 625.36627 4278190080
649.54175 41.206043 512.4176 4278190080
498.01801 319.78601 293.25812 4278190080
24.764084 984.58844 608.99298 4278190080
530.74542 355.98026 974.87848 4278190080
136.29213 486.96957 720.55542 4278190080
689.11707 514.36768 162.79005 4278190080
260.62003 361.39096 1008.652 4278190080
21.376564 444.93185 442.45053 4278190080
118.0445 963.74609 441.87906 4278190080
897.10065 473.37851 201.82642 4278190080
498.46689 98.920242 243.03246 4278190080
1010.8845 596.93823 562.81848 4278190080
280.14264 621.70233 523.40686 4278190080
889.13562 128.4478 879.38715 4278190080
840.0141 264.73993 342.35672 4278190080
536.56946 953.85693 856.72443 4278190080
699.3595 190.47697 194.1154 4278190080
684.01154 211.85355 639.04724 4278190080
102.46206 329.89804 578.79333 4278190080
544.34113 202.99867 28.171843 4278190080
746.16754 701.46558 127.09209 4278190080
989.20001 688.3501 724.03033 4278190080
528.01843 968.49274 321.7327 4278190080
27.425331 833.62836 450.18048 4278190080
906.8125 649.64246 714.92041 4278190080
225.1692 162.2119 644.77734 4278190080
57.893635 861.57141 835.25433 4278190080
252.00903 521.58295 23.107887 4278190080
891.05627 624.04504 353.00592 4278190080
445.84961 144.38614 556.00458 4278190080
474.02145 890.55365 233.47017 4278190080
601.11353 855.75366 921.82025 4278190080
301.14389 359.77209 866.31305 4278190080
622.87659 387.19742 675.94141 4278190080
49.057064 270.00992 301.58383 4278190080
763.97748 495.17911 463.79572 4278190080
384.75485 553.07275 301.36716 4278190080
196.0092 805.08179 822.95013 4278190080
219.11708 672.13806 422.99515 4278190080
572.12299 93.987663 567.38129 4278190080
104.12762 568.00909 433.93494 4278190080
337.59778 145.12263 265.6886 4278190080
235.41808 446.26651 625.46069 4278190080
77.731094 45.143101 1012.6581 4278190080
753.67249 94.200165 258.66803 4278190080
31.256292 858.17767 753.84717 4278190080
495.052 218.9325 282.91989 4278190080
796.41919 414.94171 64.001686 4278190080
595.36926 634.05878 736.13977 4278190080
1018.3644 182.18179 830.12738 4278190080
561.74567 286.30942 374.13651 4278190080
995.68066 623.90723 519.25916 4278190080
237.36923 859.32526 965.5257 4278190080
862.82996 937.0564 1010.6688 4278190080
851.48804 666.72882 80.868942 4278190080
86.156105 697.98511 939.04657 4278190080
840.00323 169.03716 133.97908 4278190080
98.923164 965.4563 548.92078 4278190080
162.92485 536.82556 158.97957 4278190080
899.06458 531.19 341.16138 4278190080
705.19202 68.935684 627.47076 4278190080
55.328518 40.616325 227.37798 4278190080
574.58765 277.98557 62.703255 4278190080
516.11334 116.81549 999.75964 4278190080
502.78214 968.30353 642.48846 4278190080
583.65106 30.459661 316.4736 4278190080
498.69766 870.46289 485.51074 4278190080
632.67676 969.38611 426.96704 4278190080
157.59752 108.31094 963.79266 4278190080
316.57709 1007.3755 470.98264 4278190080
657.73846 688.5675 539.91833 4278190080
261.20923 743.89606 580.53467 4278190080
488.58719 294.48373 858.5202 4278190080
551.29047 810.59705 975.33569 4278190080
527.05011 289.37921 919.63922 4278190080
145.53854 873.03027 950.09894 4278190080
462.01215 347.72794 796.56183 4278190080
947.52289 980.40466 741.94794 4278190080
350.48996 114.00218 850.25885 4278190080
290.28259 430.57925 833.6344 4278190080
761.2652 64.317719 498.2019 4278190080
277.18353 325.52695 218.09796 4278190080
857.7182 814.11414 512.58167 4278190080
692.23834 341.4046 299.17874 4278190080
643.57404 868.45465 588.55792 4278190080
539.21332 1013.9932 437.5882 4278190080
465.31223 452.00537 785.31616 4278190080
237.87405 375.52826 741.72083 4278190080
979.82196 726.01825 855.72296 4278190080
806.08081 1016.3008 262.30225 4278190080
615.71521 753.56604 326.61996 4278190080
89.917107 6.7495646 652.14691 4278190080
308.01508 864.46771 442.26105 4278190080
820.59674 532.70612 783.66565 4278190080
95.775482 152.28017 628.1203 4278190080
684.33344 691.49347 618.11353 4278190080
97.921638 132.80571 46.118923 4278190080
883.23779 370.67978 421.64719 4278190080
600.95856 326.50174 123.66542 4278190080
432.68155 108.58257 115.96623 4278190080
694.98383 724.29779 869.53229 4278190080
1021.6038 814.21484 876.2818 4278190080
649.75067 98.229927 716.74957 4278190080
68.011719 918.82666 225.45567 4278190080
851.67737 1014.6022 377.73584 4278190080
455.7977 674.93555 45.229336 4278190080
49.911236 772.85724 178.03505 4278190080
96.030159 632.09497 548.71484 4278190080
517.67737 209.05356 875.21655 4278190080
641.34277 641.73511 983.79913 4278190080
757.30902 312.7189 684.09686 4278190080
602.84125 310.32266 474.31177 4278190080
455.12308 960.07336 572.54169 4278190080
147.87265 4.0850511 467.36835 4278190080
373.32834 855.76239 457.97052 4278190080
751.06415 287.56009 108.90608 4278190080
796.29352 337.47134 881.76331 4278190080
974.32855 433.5015 489.85828 4278190080
499.04337 951.17883 698.9118 4278190080
350.25995 568.52161 316.64694 4278190080
310.05908 301.83063 629.36584 4278190080
994.15594 904.67188 939.68848 4278190080
444.46771 335.79495 875.76184 4278190080
1017.0094 483.6676 879.84686 4278190080
460.37775 856.99591 711.60931 4278190080
918.34827 584.06012 999.16937 4278190080
3.2543464 356.35361 312.64072 4278190080
885.01764 306.68219 746.14221 4278190080
350.87592 805.72552 673.32104 4278190080
25.787756 131.98549 217.84267 4278190080
342.43469 442.04456 519.67328 4278190080
971.80054 412.20053 400.34515 4278190080
887.48901 856.66821 736.14014 4278190080
739.25085 849.67761 195.80772 4278190080
595.09772 286.05539 28.803665 4278190080
282.70703 180.40366 612.86377 4278190080
257.87643 183.65799 969.21741 4278190080
570.51715 44.67564 251.89957 4278190080
292.65936 395.55157 33.625122 4278190080
965.98041 421.33932 165.61061 4278190080
159.82307 763.77399 607.65515 4278190080
679.49634 711.57452 1019.8557 4278190080
55.841507 575.06354 852.52393 4278190080
791.98163 290.31439 678.20154 4278190080
987.78937 885.41217 964.25696 4278190080
1016.593 144.11919 120.66058 4278190080
605.45679 401.99561 304.31857 4278190080
550.67419 972.51276 348.99423 4278190080
802.57373 241.17213 744.54578 4278190080
836.19885 183.15254 141.8851 4278190080
1001.8095 342.97562 905.65912 4278190080
585.46466 1022.472 593.23364 4278190080
581.32037 54.313496 144.29718 4278190080
409.8443 846.2951 434.6116 4278190080
64.045845 810.08447 296.02374 4278190080
4.3027835 802.67749 440.14291 4278190080
124.96337 384.13428 842.13855 4278190080
429.28195 934.80847 790.65131 4278190080
778.27618 713.3822 7.8234215 4278190080
498.82196 525.58112 190.97597 4278190080
640.70709 503.39059 533.9516 4278190080
522.36615 64.855263 532.42358 4278190080
91.599815 646.17566 586.73706 4278190080
235.897 32.019928 409.0322 4278190080
670.50861 96.065773 195.11665 4278190080
966.53235 100.36855 997.79413 4278190080
382.67523 225.33192 357.92841 4278190080
200.81377 654.61389 268.73685 4278190080
991.46503 408.89005 982.11908 4278190080
999.28845 907.71204 483.70016 4278190080
166.26443 524.41907 987.09076 4278190080
700.21606 22.785259 27.946007 4278190080
208.63963 114.38508 674.12164 4278190080
795.37671 350.28207 706.14154 4278190080
180.40891 1020.7906 802.20734 4278190080
375.52557 963.323 902.57587 4278190080
349.3197 321.99823 103.90782 4278190080
707.24811 522.81201 758.52173 4278190080
975.98492 490.27704 143.41176 4278190080
934.104 465.56552 27.123775 4278190080
393.80417 631.82996 551.54285 4278190080
356.8949 308.04599 574.32812 4278190080
384.84091 516.68561 688.7132 4278190080
34.962551 288.06235 14.995276 4278190080
741.10413 468.47125 11.78595 4278190080
519.31146 843.99683 975.10895 4278190080
397.88736 169.31651 273.10718 4278190080
501.7952 876.56464 795.91919 4278190080
236.31688 828.54956 262.19623 4278190080
379.72864 738.65356 727.76172 4278190080
406.85242 108.45773 335.59167 4278190080
958.39526 465.35263 643.6377 4278190080
508.72339 850.19354 136.3233 4278190080
173.43658 885.15607 424.38565 4278190080
188.43187 602.26019 892.85687 4278190080
200.21782 97.571686 712.8537 4278190080
151.32677 495.45905 882.17023 4278190080
424.43396 997.25421 734.73486 4278190080
196.35312 209.57112 539.28442 4278190080
458.54935 589.29974 253.93797 4278190080
162.31107 996.15216 362.39569 4278190080
497.90274 930.54749 827.74835 4278190080
117.54044 415.27084 653.94189 4278190080
253.86374 588.70746 515.09796 4278190080
678.24939 777.13934 93.3582 4278190080
547.10626 977.35712 190.92989 4278190080
235.95999 104.6839 686.38892 4278190080
94.130203 529.11786 659.64319 4278190080
828.86505 725.47095 869.21429 4278190080
344.14944 160.02031 434.51404 4278190080
598.0874 322.33136 406.66623 4278190080
960.48309 820.23413 313.21368 4278190080
764.23145 937.77454 728.48456 4278190080
394.17334 167.63831 293.19199 4278190080
909.2713 845.8877 46.331295 4278190080
1002.6295 368.99396 1023.6884 4278190080
169.5594 604.95398 104.37233 4278190080
855.94836 699.08417 633.49017 4278190080
491.59149 503.94919 334.96115 4278190080
336.80576 848.09863 494.98145 4278190080
771.31982 422.18604 817.31281 4278190080
153.98602 358.66916 613.54694 4278190080
467.19971 98.900612 527.32147 4278190080
171.68423 493.07394 694.95978 4278190080
464.87622 378.34528 516.84747 4278190080
511.20752 356.97479 885.84143 4278190080
510.89594 526.53418 466.79541 4278190080
615.26825 358.48251 141.87956 4278190080
224.75844 850.07404 645.82874 4278190080
559.7196 162.87979 469.9274 4278190080
30.701027 934.19958 892.11346 4278190080
848.01385 64.185616 226.78259 4278190080
437.56079 531.38531 325.6832 4278190080
964.88226 703.06952 818.75714 4278190080
635.8421 143.94576 173.10243 4278190080
128.68958 655.15326 530.07721 4278190080
1014.531 142.04919 32.611404 4278190080
457.32642 757.31744 391.09393 4278190080
599.20599 982.07587 217.16795 4278190080
221.03474 517.79547 380.04773 4278190080
690.96216 548.49652 290.24734 4278190080
559.07556 372.51035 354.43295 4278190080
785.85815 810.07111 885.81824 4278190080
87.541389 750.95343 564.88782 4278190080
906.29852 362.7955 708.83356 4278190080
55.400978 491.48508 339.98682 4278190080
585.47821 482.01611 482.03601 4278190080
618.0896 939.34253 215.35349 4278190080
1009.1835 514.54852 173.42937 4278190080
202.35149 735.58325 691.22485 4278190080
582.39923 402.54541 215.72134 4278190080
872.64655 961.62097 588.23169 4278190080
203.07951 723.47919 374.30283 4278190080
64.897781 811.02057 101.25625 4278190080
629.78558 693.31909 464.05176 4278190080
314.61917 748.72009 955.53687 4278190080
654.60602 310.19827 413.55298 4278190080
112.64202 928.2879 328.89551 4278190080
327.99551 913.47144 843.44403 4278190080
501.42487 91.822906 555.02734 4278190080
168.64972 674.22211 957.57275 4278190080
384.37106 522.86871 895.19373 4278190080
972.60272 725.94818 594.67291 4278190080
322.90558 790.84601 381.69345 4278190080
424.1618 396.63159 51.012558 4278190080
888.21356 711.25073 799.73267 4278190080
819.75043 341.85675 85.930931 4278190080
209.30339 454.49878 1014.2188 4278190080
538.19891 782.49426 903.69025 4278190080
357.64294 259.91916 995.51312 4278190080
912.67029 428.56888 645.73529 4278190080
846.24298 812.93994 144.60396 4278190080
717.43671 761.54266 870.55219 4278190080
288.10962 60.44825 637.39819 4278190080
669.8031 484.61008 10.029753 4278190080
720.81561 348.82364 721.28052 4278190080
496.54828 144.57407 39.137257 4278190080
582.47919 353.87747 493.63602 4278190080
572.69806 892.07635 252.13029 4278190080
452.38828 225.71933 512.04944 4278190080
423.9014 114.3896 940.61835 4278190080
45.636669 960.63263 729.55823 4278190080
190.24063 654.06934 467.10092 4278190080
36.792805 942.17896 527.54919 4278190080
674.19098 587.98206 1012.1592 4278190080
684.2207 284.79767 336.98288 4278190080
381.50122 781.34595 481.55695 4278190080
420.63849 339.82516 835.43439 4278190080
914.27454 912.52319 703.5108 4278190080
142.40482 340.91147 929.2301 4278190080
654.45428 764.81287 19.619701 4278190080
571.07257 810.44952 980.25232 4278190080
276.63083 1000.6902 610.32166 4278190080
743.73175 13.482981 528.50061 4278190080
247.28096 687.67395 92.482651 4278190080
235.4402 347.89468 377.28033 4278190080
572.4231 729.39587 134.62628 4278190080
29.980026 126.03439 474.45145 4278190080
865.41443 16.308897 362.97467 4278190080
544.92523 158.71371 703.88611 4278190080
450.1553 813.16797 444.69901 4278190080
469.77499 360.24054 231.14854 4278190080
426.02731 636.8714 207.83873 4278190080
12.348963 356.60315 221.3217 4278190080
540.84955 603.88409 908.99567 4278190080
633.33221 839.32428 232.89034 4278190080
1010.6125 387.74738 962.28625 4278190080
121.23884 417.72742 64.320618 4278190080
595.69031 259.14185 80.629517 4278190080
958.66498 804.06708 239.34322 4278190080
638.55109 230.22235 28.51119 4278190080
59.250107 699.99738 388.75174 4278190080
290.39865 102.02467 1.6231217 4278190080
498.23737 114.37364 358.22629 4278190080
719.55908 655.22321 962.11035 4278190080
604.55475 264.55545 777.43469 4278190080
837.44507 251.168 141.18207 4278190080
775.73132 372.40683 558.90948 4278190080
840.05194 968.09711 818.05133 4278190080
920.68146 902.76208 598.11835 4278190080
136.02466 517.31317 828.3407 4278190080
164.53586 576.56329 504.33807 4278190080
553.2876 866.96198 606.36279 4278190080
554.91071 341.19934 720.73639 4278190080
913.13696 36.758423 351.95963 4278190080
851.24738 641.31317 616.51508 4278190080
604.68207 454.75824 867.68304 4278190080
745.86414 206.48955 216.08989 4278190080
280.77359 22.54147 160.18701 4278190080
74.824921 943.2229 38.949104 4278190080
672.9433 55.247578 556.26233 4278190080
477.284 219.78343 108.8256 4278190080
981.62207 773.07104 975.78754 4278190080
563.98486 303.98175 292.98688 4278190080
260.72125 193.11873 329.7453 4278190080
612.68091 20.366106 971.05847 4278190080
205.19594 625.04816 401.81671 4278190080
48.878998 346.91226 608.30627 4278190080
264.96887 627.68585 630.84772 4278190080
425.15588 702.5108 550.07062 4278190080
464.10501 351.45407 605.31824 4278190080
1020.3673 828.7381 825.10162 4278190080
105.19289 786.36017 574.17267 4278190080
56.98045 326.34506 878.15442 4278190080
349.96735 587.06635 47.273155 4278190080
679.71265 175.74719 67.639259 4278190080
626.77112 380.94315 692.68744 4278190080
4.5878315 429.82214 15.599692 4278190080
612.8941 694.79102 643.28558 4278190080
219.74181 95.946915 321.79636 4278190080
769.81244 560.05194 673.25043 4278190080
351.13065 556.41919 477.98853 4278190080
152.2323 661.61212 240.34871 4278190080
726.40497 718.59259 566.69379 4278190080
580.55939 44.559898 129.76007 4278190080
627.83252 724.27252 305.50726 4278190080
695.4718 327.04367 686.45044 4278190080
364.15921 331.6315 92.27256 4278190080
379.75891 944.52557 787.0636 4278190080
1023.0445 140.2674 883.0105 4278190080
320.84085 910.07983 419.06241 4278190080
994.09125 237.21051 975.48163 4278190080
448.0798 389.44281 613.09375 4278190080
688.42853 91.847786 307.68631 4278190080
231.12225 672.40717 352.24619 4278190080
360.88232 276.23975 52.518742 4278190080
666.38959 971.71155 379.56241 4278190080
328.84003 311.87076 711.19391 4278190080
421.11258 691.6297 631.71948 4278190080
184.17616 690.67419 771.98688 4278190080
43.186653 1011.515 658.06671 4278190080
462.24905 981.60626 895.27722 4278190080
413.73068 405.68607 260.72003 4278190080
2.8244195 70.114563 352.56784 4278190080
310.51071 301.23682 0.97501612 4278190080
662.7569 662.11914 277.21475 4278190080
715.27563 304.50876 224.92628 4278190080
70.838058 633.34875 536.79706 4278190080
782.03198 30.461365 204.42674 4278190080
389.75146 214.63753 895.10089 4278190080
137.73834 257.82419 882.61591 4278190080
795.80505 720.07324 840.22217 4278190080
667.08234 109.80392 221.90825 4278190080
927.80237 112.62834 292.0228 4278190080
256.37021 423.13907 593.25964 4278190080
257.34521 61.895969 231.37878 4278190080
534.55994 777.17163 535.88757 4278190080
759.48627 848.0097 145.23633 4278190080
272.28329 606.04163 175.69769 4278190080
476.71005 995.79309 390.33524 4278190080
347.81094 109.53146 648.15942 4278190080
206.42686 905.33655 344.23264 4278190080
22.64904 548.41888 454.03656 4278190080
244.55728 452.22122 566.66492 4278190080
536.58008 708.59143 989.80396 4278190080
105.83973 965.93665 27.699928 4278190080
337.21851 476.49661 804.87158 4278190080
873.10608 211.98288 628.88123 4278190080
1018.3424 484.26617 210.9229 4278190080
170.04008 960.97626 182.71602 4278190080
560.37531 284.78717 292.2475 4278190080
184.53471 491.21405 173.58403 4278190080
528.76733 513.8631 722.00293 4278190080
982.80389 758.42035 150.22414 4278190080
525.46881 271.00046 858.81555 4278190080
491.27277 376.84018 800.75226 4278190080
518.97272 714.05872 253.24886 4278190080
299.84424 563.16479 465.23172 4278190080
928.72546 557.50714 949.49792 4278190080
115.64838 727.54724 886.47412 4278190080
298.36441 263.92258 147.26131 4278190080
590.61188 448.45728 638.47534 4278190080
764.19592 977.22461 128.33844 4278190080
462.19882 936.0285 886.75879 4278190080
612.42297 437.49734 133.75926 4278190080
447.23853 928.77008 510.59946 4278190080
223.99077 423.7428 200.65817 4278190080
477.23962 723.58704 763.82294 4278190080
942.47131 628.3125 297.33011 4278190080
867.96924 743.96088 0.87735605 4278190080
730.44336 18.325294 264.79993 4278190080
877.70471 608.93719 713.2572 4278190080
492.18002 349.13309 666.48181 4278190080
620.51849 811.33191 578.51038 4278190080
483.27728 399.75485 1016.0077 4278190080
617.03656 846.99341 920.77783 4278190080
103.636 46.984146 320.5206 4278190080
304.29416 524.22375 20.107628 4278190080
44.117104 442.6951 648.42017 4278190080
341.4472 286.66434 368.38104 4278190080
342.32455 1017.1077 386.70633 4278190080
607.12451 870.81238 995.64349 4278190080
296.38168 338.9924 320.77658 4278190080
962.86353 959.51086 108.10849 4278190080
517.3739 418.78815 507.86334 4278190080
509.38159 11.824705 330.85672 4278190080
406.15942 115.46071 377.84088 4278190080
726.67999 419.75488 902.06464 4278190080
746.78766 463.87198 320.7597 4278190080
371.20779 805.31915 607.42401 4278190080
739.58881 123.64374 600.53174 4278190080
102.29517 730.76819 447.34412 4278190080
73.938675 3.1499104 786.33655 4278190080
394.71527 966.01343 721.84741 4278190080
502.82376 459.38733 116.63557 4278190080
1010.6871 968.76892 128.46028 4278190080
317.54382 350.92834 243.92099 4278190080
695.3847 53.608353 663.67584 4278190080
573.44934 800.396 103.54784 4278190080
894.20905 147.60376 908.867 4278190080
477.63309 887.19257 8.5107498 4278190080
54.164814 989.48773 739.27899 4278190080
501.50894 39.42643 742.42889 4278190080
263.84546 434.14169 684.44232 4278190080
985.69287 936.96545 119.82965 4278190080
78.328445 923.65259 64.598595 4278190080
206.78873 217.1964 415.52695 4278190080
450.70972 912.58112 469.13528 4278190080
90.385574 462.03043 245.53128 4278190080
193.93341 332.23944 393.13504 4278190080
78.80043 809.8725 256.32764 4278190080
87.31118 864.03735 221.8154 4278190080
826.59015 341.54626 261.24182 4278190080
545.01904 605.39172 695.38354 4278190080
205.46135 567.08459 608.349 4278190080
325.29099 645.41302 508.00156 4278190080
389.88959 852.20178 725.19794 4278190080
805.4165 278.91147 613.77905 4278190080
250.55182 369.29706 51.80946 4278190080
496.0831 563.23047 384.04892 4278190080
889.21814 642.03088 169.92143 4278190080
121.54579 729.3421 9.9587708 4278190080
343.36118 531.93225 351.50504 4278190080
604.60303 52.951252 956.89673 4278190080
275.98654 258.4126 499.98135 4278190080
884.33557 583.70361 121.39439 4278190080
368.3371 973.5932 973.59613 4278190080
69.535057 755.0097 228.50763 4278190080
683.31409 1005.5615 597.80469 4278190080
735.12354 477.64465 137.03516 4278190080
95.17247 342.86279 779.06604 4278190080
265.0939 464.4086 484.40814 4278190080
275.05267 807.76978 1016.3404 4278190080
626.55774 388.3728 45.291618 4278190080
559.45447 664.35931 303.70422 4278190080
35.43581 524.69489 887.40778 4278190080
156.8302 893.03198 837.00098 4278190080
106.42635 962.56702 568.01068 4278190080
334.93396 621.88116 549.5722 4278190080
932.73865 333.0047 3.2168646 4278190080
45.773823 428.17719 346.07965 4278190080
824.8399 693.27106 810.48822 4278190080
285.24802 968.32373 594.258 4278190080
277.58838 570.88147 982.6308 4278190080
322.88 106.33593 622.99017 4278190080
626.58423 141.77174 123.68504 4278190080
489.99203 298.60193 1016.717 4278190080
302.99301 405.02829 955.28406 4278190080
871.00372 739.96228 553.16522 4278190080
396.57593 648.70093 886.16992 4278190080
399.79279 694.47473 290.34708 4278190080
745.87244 495.31464 983.61816 4278190080
532.36072 780.56262 927.94196 4278190080
102.61872 34.151039 474.82339 4278190080
61.249535 357.03107 581.15936 4278190080
684.23969 983.6153 722.93109 4278190080
807.92474 449.6073 1021.533 4278190080
800.64172 752.60034 402.56131 4278190080
731.92578 599.60406 118.52355 4278190080
261.091 996.17999 767.22449 4278190080
123.26091 371.97278 437.69922 4278190080
413.608 93.84523 933.01385 4278190080
373.22617 626.20593 689.57648 4278190080
277.16812 728.82465 723.72754 4278190080
751.99152 790.07422 56.758572 4278190080
309.15085 450.31387 16.373854 4278190080
8.0819244 234.2386 465.98117 4278190080
5.6149416 10.880342 194.5815 4278190080
408.17624 742.80615 794.18555 4278190080
526.69977 1003.8972 766.36554 4278190080
269.92426 103.15806 114.33829 4278190080
707.62347 516.76605 208.18352 4278190080
616.63733 889.99225 834.38947 4278190080
282.21378 143.16035 539.21411 4278190080
1005.9413 895.15186 305.2883 4278190080
38.699879 180.3027 755.60217 4278190080
55.07373 188.38463 989.84076 4278190080
521.05487 193.99957 1000.7211 4278190080
715.63641 602.17578 719.52728 4278190080
485.82193 104.8756 699.42438 4278190080
228.18744 374.79987 802.58246 4278190080
342.52573 58.423347 295.34851 4278190080
550.70923 675.06067 161.34076 4278190080
361.09869 957.27441 304.5011 4278190080
900.31281 939.21576 175.65297 4278190080
181.60109 977.91565 355.95569 4278190080
937.20325 8.9893532 544.34033 4278190080
903.04401 530.04425 738.3399 4278190080
879.76514 221.68065 316.51569 4278190080
575.29242 707.50256 421.3913 4278190080
250.71681 935.69 796.19116 4278190080
29.299274 254.21574 854.6145 4278190080
324.6478 804.92499 505.67517 4278190080
485.98856 142.0237 438.94958 4278190080
790.48969 18.336494 354.16534 4278190080
966.14264 199.93759 308.08096 4278190080
298.09833 113.14085 317.07031 4278190080
842.43866 1016.1849 847.11456 4278190080
556.7785 871.95001 44.795216 4278190080
873.29419 423.24246 752.29779 4278190080
270.68549 673.95923 663.98779 4278190080
42.876659 703.25854 918.20355 4278190080
897.49115 3.9063344 699.12854 4278190080
379.16632 489.8949 841.15222 4278190080
818.11591 256.38458 859.48877 4278190080
148.28128 198.52724 35.426331 4278190080
456.36224 496.62558 148.56718 4278190080
773.43256 315.06421 140.75208 4278190080
596.54712 871.84271 1012.7021 4278190080
641.34235 721.1369 411.94455 4278190080
369.64014 991.82239 61.903824 4278190080
9.6279469 10.699076 765.16235 4278190080
927.83148 908.19025 769.06866 4278190080
602.96008 263.35657 234.96359 4278190080
420.1123 57.472519 491.34818 4278190080
255.60106 205.7538 689.87543 4278190080
291.0274 662.11603 162.50098 4278190080
439.59457 411.54858 477.56519 4278190080
580.34668 1008.0957 325.4079 4278190080
569.04877 625.43805 22.544809 4278190080
980.99335 995.07819 1014.3672 4278190080
18.89716 1004.7061 1.0663013 4278190080
784.05951 908.53766 909.25653 4278190080
529.12823 487.49771 148.61313 4278190080
764.0918 907.61005 206.08565 4278190080
231.43997 139.21111 411.83945 4278190080
921.31537 430.23849 49.955482 4278190080
59.816345 869.83307 461.50409 4278190080
537.38153 426.17975 445.59979 4278190080
862.78943 995.22852 47.037857 4278190080
885.33423 952.22186 18.116049 4278190080
875.70142 971.11902 1022.8222 4278190080
876.76776 731.17853 907.35986 4278190080
762.02429 236.30673 370.85757 4278190080
910.63745 1000.3986 254.46761 4278190080
92.723076 207.8385 393.67871 4278190080
504.56253 105.15387 823.91718 4278190080
554.51801 164.97021 669.75031 4278190080
1016.0221 702.35175 71.930031 4278190080
437.62189 541.14117 43.158546 4278190080
484.65973 402.47537 995.38037 4278190080
502.77579 254.1768 942.49939 4278190080
501.59796 106.94456 649.67792 4278190080
384.95782 868.96887 885.98468 4278190080
755.81537 755.60626 862.38318 4278190080
1010.283 848.32935 46.221699 4278190080
379.96167 328.89188 151.37556 4278190080
179.87888 883.40991 316.34579 4278190080
849.62915 875.43201 1018.6975 4278190080
921.5592 289.05386 535.83868 4278190080
964.71777 773.71362 938.31403 4278190080
936.09814 252.48938 168.49084 4278190080
854.59753 754.08734 275.43539 4278190080
480.27548 115.04517 120.40426 4278190080
342.26016 870.86053 876.01056 4278190080
180.64337 857.14349 700.3399 4278190080
226.86507 213.10519 5.2317829 4278190080
378.24063 392.98407 888.64166 4278190080
694.58643 218.61324 740.07367 4278190080
689.28394 116.17244 5.127511 4278190080
201.12262 56.890179 778.84113 4278190080
115.43665 992.98834 7.3304844 4278190080
283.92749 823.58588 761.41785 4278190080
559.36292 279.86136 876.46301 4278190080
679.76715 622.12152 723.32355 4278190080
531.77771 802.76489 556.46704 4278190080
208.1176 5.6299582 769.57227 4278190080
213.34938 383.87061 138.5563 4278190080
77.991051 54.457012 357.16956 4278190080
818.0647 743.74097 473.34198 4278190080
823.1922 944.86359 530.23218 4278190080
578.03333 36.300228 499.22049 4278190080
585.36383 320.22772 298.80637 4278190080
322.78165 879.59064 578.66772 4278190080
175.24464 535.35779 176.78926 4278190080
898.56818 43.135487 979.55414 4278190080
431.03525 251.25308 985.18408 4278190080
176.60748 464.60245 345.05472 4278190080
315.16379 542.59351 399.51172 4278190080
672.33331 336.6582 119.25268 4278190080
121.67532 135.85043 40.116253 4278190080
651.90747 713.88373 76.416481 4278190080
127.12797 275.24756 396.6442 4278190080
425.93433 598.02917 252.23485 4278190080
1004.6021 773.27386 787.59265 4278190080
157.39131 647.84204 830.72809 4278190080
112.94547 54.877266 57.981194 4278190080
74.129578 231.48474 522.58368 4278190080
419.18427 546.64856 41.177155 4278190080
818.69598 194.98187 377.83536 4278190080
937.94867 316.6572 513.68579 4278190080
978.06494 968.5647 203.56953 4278190080
30.481403 71.692635 478.81711 4278190080
427.12561 497.62695 52.846291 4278190080
679.36047 478.229 826.12012 4278190080
442.95309 635.62036 449.96216 4278190080
249.6812 748.5658 504.83942 4278190080
307.66238 822.69537 736.32416 4278190080
830.24603 217.87965 258.97272 4278190080
871.42322 12.575651 453.95459 4278190080
225.25858 950.52435 770.61176 4278190080
738.94434 904.58923 715.17645 4278190080
942.51392 935.07068 786.86908 4278190080
397.33099 338.19626 260.49603 4278190080
450.17728 1017.5567 738.72504 4278190080
252.29742 436.5098 350.3454 4278190080
702.25958 686.19104 74.911194 4278190080
183.09901 993.85339 897.60657 4278190080
919.42316 800.09949 91.486221 4278190080
154.3959 647.52264 104.06187 4278190080
608.35046 872.78125 30.586201 4278190080
354.96225 587.72559 935.17548 4278190080
46.138699 506.2395 846.24609 4278190080
833.00781 903.5705 160.44237 4278190080
69.50383 329.74777 153.99908 4278190080
808.22888 582.04523 590.50891 4278190080
134.5743 260.30478 252.69991 4278190080
209.48549 443.40381 222.55331 4278190080
83.092056 338.82697 1022.6528 4278190080
174.57828 493.22287 646.17542 4278190080
278.64017 77.573357 494.95667 4278190080
309.22635 432.53561 58.68227 4278190080
220.40181 478.67432 564.92175 4278190080
42.647907 287.6821 444.49228 4278190080
203.09027 357.18591 774.24005 4278190080
357.08936 141.41483 332.28525 4278190080
947.59827 275.98914 592.59003 4278190080
176.29817 485.47461 11.993842 4278190080
398.8515 568.56665 350.82083 4278190080
397.50427 743.14496 844.0437 4278190080
19.679718 1021.7851 921.61707 4278190080
514.63641 307.01147 330.15268 4278190080
573.31866 527.41327 808.82697 4278190080
114.24044 570.06116 72.509071 4278190080
558.73273 773.15149 429.69501 4278190080
308.97275 106.24083 571.1098 4278190080
641.258 29.839096 847.09894 4278190080
209.84807 206.13727 308.57355 4278190080
221.84192 604.98877 877.14026 4278190080
572.66272 1002.493 596.28516 4278190080
392.70642 1022.1728 594.07031 4278190080
290.32349 512.80914 901.08179 4278190080
620.47614 62.127823 404.49506 4278190080
405.30313 176.36826 974.55621 4278190080
477.81219 735.10095 723.7077 4278190080
907.5072 20.073729 829.94855 4278190080
454.61703 661.33173 859.7876 4278190080
277.71597 871.17981 41.9249 4278190080
586.28955 69.021736 646.9137 4278190080
439.42978 641.68445 625.40674 4278190080
11.714952 10.390907 623.57947 4278190080
605.78528 300.71439 112.38863 4278190080
482.86703 921.19055 174.51645 4278190080
887.36206 302.49368 350.8847 4278190080
837.91833 780.30591 61.985676 4278190080
537.62598 663.81311 82.059402 4278190080
343.57452 94.430115 743.39117 4278190080
179.36217 372.14609 590.57098 4278190080
221.28706 958.43561 659.59271 4278190080
868.20074 373.86539 277.27719 4278190080
469.60745 385.58035 287.66809 4278190080
69.186913 991.3656 588.38251 4278190080
181.57555 450.23264 485.57306 4278190080
356.09198 313.5947 788.06671 4278190080
706.97668 127.51299 544.37262 4278190080
768.9624 665.13898 184.18568 4278190080
851.02179 1008.7136 278.61581 4278190080
570.41296 164.0757 650.7619 4278190080
136.98392 385.36276 585.19751 4278190080
796.57666 229.56349 959.06293 4278190080
49.853836 699.17096 320.64328 4278190080
337.52194 768.35785 288.00888 4278190080
925.90442 949.93341 738.24152 4278190080
387.47748 282.02539 27.836195 4278190080
151.5442 989.00208 155.3492 4278190080
695.91681 733.96448 820.48822 4278190080
880.10248 560.98627 805.20172 4278190080
134.71831 107.39919 969.2774 4278190080
785.48022 244.38312 330.6402 4278190080
346.67773 16.959751 560.20367 4278190080
281.74066 66.813591 235.37463 4278190080
602.38397 404.33554 1003.7325 4278190080
890.39282 306.23996 929.66589 4278190080
604.63434 693.71747 187.69125 4278190080
632.47052 845.26166 152.69334 4278190080
787.8197 517.17847 886.65784 4278190080
584.30792 373.28098 423.64407 4278190080
365.50964 507.9993 531.04327 4278190080
310.78708 269.47949 775.42639 4278190080
641.42731 616.15723 792.38611 4278190080
177.63097 897.89795 859.19971 4278190080
413.00558 476.28189 239.53523 4278190080
392.73807 342.67471 545.77521 4278190080
298.40393 947.30908 215.49266 4278190080
486.09518 555.7796 36.754314 4278190080
638.78857 319.59933 553.9328 4278190080
501.44635 903.90723 927.21375 4278190080
925.09045 245.4169 411.21304 4278190080
432.13367 556.20398 680.69257 4278190080
183.56004 173.63126 272.84979 4278190080
975.94617 351.26224 146.74771 4278190080
811.14587 764.26782 623.0296 4278190080
26.681103 133.00591 965.70428 4278190080
572.4563 431.40985 889.01337 4278190080
787.94897 917.50507 420.79297 4278190080
824.70325 532.29358 740.39227 4278190080
354.63605 9.739954 620.29956 4278190080
257.84982 934.83038 865.71643 4278190080
669.06287 342.96405 397.92041 4278190080
325.7554 526.52411 571.5517 4278190080
598.60516 478.47028 922.8139 4278190080
745.35291 265.61612 663.08173 4278190080
344.38248 292.29724 796.08765 4278190080
286.08679 864.75354 203.49751 4278190080
151.10017 628.70251 97.002563 4278190080
571.89313 429.40576 629.29614 4278190080
288.28543 784.04181 639.03613 4278190080
908.58496 17.89164 549.86652 4278190080
750.30139 686.95447 892.83057 4278190080
124.22182 1012.7099 395.35464 4278190080
695.7735 587.31506 873.82489 4278190080
594.5874 308.668 115.44104 4278190080
233.66916 653.05048 407.73828 4278190080
5.7568278 939.13727 248.49181 4278190080
209.25435 66.237442 877.19427 4278190080
306.2569 638.13055 282.60007 4278190080
935.5531 926.41602 42.641895 4278190080
550.58917 811.00098 60.533539 4278190080
76.455688 537.30237 747.48804 4278190080
969.28625 661.52417 736.19794 4278190080
340.6409 333.29767 299.51303 4278190080
190.46581 927.88507 608.18103 4278190080
305.90686 137.55424 237.23149 4278190080
713.64514 143.31108 152.36877 4278190080
962.1369 352.56543 218.60622 4278190080
815.33124 658.82233 856.73682 4278190080
73.93129 570.37543 759.15277 4278190080
116.57319 96.9646 546.15375 4278190080
177.10672 173.42029 59.45612 4278190080
924.59479 118.70653 720.98029 4278190080
636.79272 459.34741 30.277969 4278190080
936.30573 649.81323 958.16302 4278190080
520.48676 955.72009 71.717308 4278190080
757.7182 645.36517 215.02838 4278190080
910.08698 583.50208 567.59381 4278190080
104.69321 374.83331 202.41614 4278190080
961.42999 448.76462 772.79156 4278190080
696.58282 565.33783 869.75616 4278190080
218.73656 742.44452 19.176434 4278190080
278.19269 643.03931 137.88297 4278190080
999.17297 255.83199 597.23041 4278190080
5.4509387 168.13771 223.04361 4278190080
963.61401 688.62445 154.76367 4278190080
11.3313 422.34268 800.12885 4278190080
226.35968 308.42966 359.63095 4278190080
793.95349 413.12286 734.46429 4278190080
996.36963 350.55289 159.22891 4278190080
745.16119 23.135677 724.56671 4278190080
590.91736 241.87224 443.01123 4278190080
610.09375 520.06488 62.050537 4278190080
747.97675 495.23788 317.88254 4278190080
321.20712 500.68881 486.02023 4278190080
544.25073 440.3028 150.64467 4278190080
699.0144 451.63409 572.98737 4278190080
475.14325 677.99377 881.41699 4278190080
834.77423 447.9473 270.53989 4278190080
545.23846 420.31693 621.09277 4278190080
704.46741 141.47812 644.22845 4278190080
405.03412 732.39545 886.10065 4278190080
848.04535 318.48923 382.16559 4278190080
910.09589 42.465942 877.40344 4278190080
203.97842 363.67307 354.09229 4278190080
689.99866 907.92377 794.39508 4278190080
840.64331 582.93817 222.02919 4278190080
389.63068 34.08139 900.02301 4278190080
247.04768 868.85559 323.97028 4278190080
517.58759 390.09409 744.28717 4278190080
114.68034 70.561485 885.76532 4278190080
758.90875 475.59561 594.16077 4278190080
621.00946 299.64096 912.64996 4278190080
1003.175 185.73686 955.11591 4278190080
856.57849 389.71527 294.78897 4278190080
186.67075 55.713936 178.71272 4278190080
981.06586 896.3573 761.65088 4278190080
179.09502 261.98795 795.73224 4278190080
55.118 509.03564 640.58783 4278190080
379.08829 2.6232009 6.6819448 4278190080
99.375473 117.30354 77.243431 4278190080
985.14081 876.21228 552.83905 4278190080
555.30151 473.22174 852.47998 4278190080
443.95151 452.39679 14.216854 4278190080
375.06741 284.97525 403.93213 4278190080
669.85638 471.646 459.64606 4278190080
848.56909 428.71185 332.00333 4278190080
586.21997 607.80688 593.99127 4278190080
357.95224 662.92487 79.026917 4278190080
998.5401 18.013126 81.650116 4278190080
1005.222 117.3886 198.95366 4278190080
58.465488 78.529381 51.165962 4278190080
611.3045 633.83093 524.3877 4278190080
439.78452 53.782425 976.78448 4278190080
454.00137 428.84985 237.75975 4278190080
857.93353 74.70623 709.40576 4278190080
293.57959 923.27533 114.1176 4278190080
625.58295 485.49533 721.92444 4278190080
195.5742 843.44757 360.8493 4278190080
274.60114 817.98767 378.86243 4278190080
356.25125 799.20972 496.25104 4278190080
555.2049 857.67523 574.7804 4278190080
606.37085 444.97977 184.61133 4278190080
106.75858 884.76428 238.39375 4278190080
59.543076 314.76566 667.24359 4278190080
297.30283 148.69916 741.94983 4278190080
1006.7086 442.27872 641.22516 4278190080
96.826202 43.861649 102.7205 4278190080
818.75067 239.43585 946.16809 4278190080
155.59998 514.03699 740.15576 4278190080
534.4624 870.28821 515.36554 4278190080
6.7134504 401.49313 349.04074 4278190080
581.4939 1007.864 794.02051 4278190080
766.10522 90.622566 654.78479 4278190080
1004.499 150.16563 969.55042 4278190080
647.74255 447.46848 94.24958 4278190080
365.69241 430.17706 536.52832 4278190080
1006.9176 527.0033 580.38995 4278190080
85.638077 321.75394 819.82581 4278190080
7.80616 477.35391 309.86279 4278190080
747.96191 1011.8163 156.15103 4278190080
239.32745 1018.5298 557.64417 4278190080
588.36823 576.02362 541.50812 4278190080
358.3887 318.12885 632.13068 4278190080
1013.1735 298.62781 782.29633 4278190080
958.72394 946.37036 205.76482 4278190080
28.973507 288.06277 635.94189 4278190080
565.50183 270.98035 138.94516 4278190080
121.89178 356.61841 460.6991 4278190080
941.71759 364.42459 938.05298 4278190080
227.5804 88.386513 925.86932 4278190080
383.73141 327.71396 920.39905 4278190080
941.37555 916.08215 472.4227 4278190080
458.8837 250.47089 790.55151 4278190080
67.014412 239.64439 65.179337 4278190080
849.31073 174.36832 1011.5497 4278190080
31.075571 203.34183 275.61246 4278190080
667.01746 768.84363 546.59283 4278190080
805.96259 890.73541 903.21124 4278190080
242.6617 808.453 243.63582 4278190080
156.71468 12.033407 332.02234 4278190080
58.583981 395.76483 659.73633 4278190080
978.98303 313.14041 551.81848 4278190080
427.40573 772.02411 802.28937 4278190080
193.95728 839.03851 17.933762 4278190080
259.1366 664.3493 192.30208 4278190080
246.68631 695.42487 395.64389 4278190080
522.29877 338.44232 140.48755 4278190080
44.89159 120.40493 7.2229581 4278190080
948.10284 363.06662 815.67596 4278190080
167.73865 519.78131 827.70935 4278190080
499.76099 578.3653 199.47421 4278190080
135.49728 533.34833 512.61462 4278190080
687.31573 960.75409 260.63873 4278190080
465.60513 130.71133 75.677261 4278190080
483.53888 389.84793 740.02655 4278190080
675.84094 636.53424 411.45142 4278190080
47.484867 134.83301 749.89374 4278190080
187.97241 179.72461 870.29865 4278190080
195.19537 103.82743 209.36526 4278190080
1010.8713 271.56607 729.14655 4278190080
814.58069 771.32703 283.51184 4278190080
1014.0549 906.82434 816.86017 4278190080
502.66953 570.14008 753.61426 4278190080
763.30823 11.745214 884.32556 4278190080
838.98553 495.28409 250.17351 4278190080
555.01208 147.12506 886.70776 4278190080
966.46344 194.60994 1021.5408 4278190080
692.35718 382.58234 177.26535 4278190080
538.65582 577.77771 281.09277 4278190080
748.02112 564.64905 552.65887 4278190080
453.16769 355.22977 299.9859 4278190080
736.67957 345.2847 182.81024 4278190080
529.53973 847.95422 752.95032 4278190080
259.15396 587.26245 764.69556 4278190080
119.47953 402.24799 235.97964 4278190080
369.65305 957.26007 383.10471 4278190080
232.36076 899.72351 577.71466 4278190080
