# .PCD v0.7 - Point Cloud Data file format
VERSION 0.7
FIELDS x y z rgb
SIZE 4 4 4 4
TYPE F F F U
COUNT 1 1 1 1
WIDTH 1175
HEIGHT 1
VIEWPOINT 0 0 0 1 0 0 0
POINTS 1175
DATA ascii
977.71851 239.12912 956.13751 4278190080
866.77881 648.21771 781.96875 4278190080
118.8305 150.7139 411.61618 4278190080
495.40274 342.17392 424.13617 4278190080
513.15356 490.40015 578.53613 4278190080
705.77362 12.04024 103.44238 4278190080
232.81212 264.20749 177.68385 4278190080
537.62451 44.159679 83.863853 4278190080
926.72815 676.67224 5.6995983 4278190080
122.36471 396.89429 413.86209 4278190080
36.756969 350.61279 652.99121 4278190080
992.89447 193.39159 277.20892 4278190080
750.86316 312.22208 427.92279 4278190080
138.47935 807.62482 770.09674 4278190080
562.61554 296.77838 236.49687 4278190080
117.15163 1002.552 248.53712 4278190080
220.59401 211.36412 512.74463 4278190080
398.27786 748.98859 556.9043 4278190080
482.14172 651.71674 209.57651 4278190080
487.84131 774.08148 606.47083 4278190080
901.70343 810.83844 957.08356 4278190080
530.69464 779.73291 126.47516 4278190080
807.9035 506.59607 438.69724 4278190080
211.82632 645.07544 222.32207 4278190080
981.92303 183.69096 519.10046 4278190080
194.41992 300.84259 497.65244 4278190080
442.95703 521.43658 709.01654 4278190080
955.70166 919.71448 434.00516 4278190080
488.60593 377.8562 61.721912 4278190080
698.18243 865.69751 835.80334 4278190080
280.65323 743.40088 622.64178 4278190080
213.73682 250.09552 378.37466 4278190080
340.21198 33.99905 884.97076 4278190080
778.90924 245.82538 506.04617 4278190080
1001.2313 203.74843 689.73712 4278190080
496.33173 398.16837 990.57971 4278190080
993.98419 841.12543 488.01633 4278190080
679.00073 772.82703 383.7308 4278190080
89.00589 237.43297 761.58698 4278190080
150.7278 935.61542 603.28448 4278190080
986.53119 192.26863 322.68539 4278190080
585.17297 406.00543 572.78094 4278190080
963.54761 746.21741 606.77997 4278190080
824.51837 501.12662 852.60535 4278190080
306.56454 478.35791 32.353771 4278190080
996.3017 974.68964 430.52213 4278190080
962.88141 944.67383 247.64752 4278190080
426.89771 599.6745 1020.4745 4278190080
810.62854 688.68042 233.90755 4278190080
548.21552 839.4082 145.52295 4278190080
127.49999 801.93939 337.7916 4278190080
450.18539 363.11234 743.79706 4278190080
1022.9663 302.65997 466.01443 4278190080
605.74628 103.17834 967.14105 4278190080
434.35162 409.74289 421.49899 4278190080
466.70538 382.04456 372.18863 4278190080
897.22754 320.92593 292.86243 4278190080
120.87504 747.82367 892.53699 4278190080
117.34961 534.45215 557.21735 4278190080
351.25714 58.667679 372.62558 4278190080
496.78009 186.16766 150.56497 4278190080
834.57166 636.35303 513.67731 4278190080
554.36871 635.31934 816.33728 4278190080
1020.3832 217.06561 919.51562 4278190080
963.52423 651.41724 305.25848 4278190080
361.02322 94.122604 687.30304 4278190080
733.21185 991.3501 1008.229 4278190080
2.0743084 88.225151 732.05261 4278190080
894.61127 205.57475 242.50481 4278190080
427.82864 556.83191 301.17249 4278190080
800.45422 29.612009 487.34015 4278190080
951.01923 864.18372 99.693199 4278190080
440.69653 394.5524 735.01257 4278190080
233.03381 390.93555 952.07819 4278190080
128.54942 330.45981 579.49536 4278190080
433.80792 691.48303 673.61798 4278190080
97.110954 400.69492 640.96808 4278190080
81.339928 402.76923 729.19324 4278190080
813.39258 273.38049 934.76801 4278190080
31.897373 701.20911 467.59991 4278190080
333.06985 477.66336 497.21191 4278190080
820.41003 404.68259 337.39563 4278190080
920.10321 845.37909 731.948 4278190080
631.11578 54.412922 98.883575 4278190080
559.19391 182.96234 429.34338 4278190080
114.68931 616.77026 96.826416 4278190080
788.30731 713.88123 497.52133 4278190080
405.27539 795.22113 900.29053 4278190080
110.46864 584.61371 149.67102 4278190080
21.236652 616.51111 850.88019 4278190080
488.83658 949.58093 304.54352 4278190080
986.04852 745.99097 709.22614 4278190080
299.44412 642.09418 530.60522 4278190080
7.3921328 249.20993 585.01813 4278190080
106.27571 808.40387 767.98047 4278190080
535.61908 923.0932 360.75076 4278190080
632.4455 687.40045 50.631962 4278190080
105.96684 68.675873 845.85309 4278190080
1006.2574 179.14452 406.4668 4278190080
131.92841 200.38116 1022.9779 4278190080
982.80853 689.21771 948.55884 4278190080
263.35208 651.26624 670.5498 4278190080
972.57819 950.71033 288.64395 4278190080
479.18344 958.10248 537.85388 4278190080
40.201588 40.378193 322.25775 4278190080
808.18207 575.99731 221.35091 4278190080
144.93283 184.44279 908.7514 4278190080
195.56479 290.40964 977.42725 4278190080
17.417898 272.66699 132.57176 4278190080
423.8847 404.5954 332.95294 4278190080
422.86258 363.40396 1022.1707 4278190080
347.42142 626.75604 649.43689 4278190080
1017.9712 575.33423 576.14728 4278190080
282.61514 30.517693 510.24976 4278190080
820.46899 70.719276 550.62793 4278190080
118.72675 878.90137 102.62522 4278190080
340.07767 1023.8342 287.06802 4278190080
224.82906 195.39899 577.47766 4278190080
178.2563 212.81688 850.14465 4278190080
310.82806 636.7016 230.74005 4278190080
643.78101 35.564186 594.14398 4278190080
641.95166 382.9856 196.90005 4278190080
267.38861 376.95679 772.23431 4278190080
843.53583 659.57196 802.75201 4278190080
329.78558 456.04095 873.47131 4278190080
880.41351 574.7677 728.37262 4278190080
983.03876 914.8454 728.20685 4278190080
246.10678 115.67442 923.60583 4278190080
823.58441 293.93073 112.42271 4278190080
649.72906 604.75879 749.12427 4278190080
880.46912 224.53981 784.68848 4278190080
450.61313 866.49152 143.67409 4278190080
647.51318 109.8801 520.63086 4278190080
395.7475 953.41595 156.20282 4278190080
174.49951 259.20157 612.24377 4278190080
23.970789 115.61509 163.01147 4278190080
752.34344 74.653847 53.856846 4278190080
456.55026 320.76062 169.53127 4278190080
356.1561 120.34505 463.46201 4278190080
468.5788 770.0741 44.220806 4278190080
193.70309 626.54321 268.76062 4278190080
978.3916 53.156364 111.25213 4278190080
98.065659 700.66956 221.13223 4278190080
618.69653 72.417053 150.54819 4278190080
774.89935 246.91655 409.74976 4278190080
363.14313 270.88736 525.36481 4278190080
526.1546 1023.2308 600.01868 4278190080
580.01141 455.78104 920.7793 4278190080
749.54272 811.93713 17.124344 4278190080
189.00471 256.51593 787.19849 4278190080
233.22551 450.21902 389.7417 4278190080
501.98615 404.6106 442.89804 4278190080
613.23828 502.67624 119.5676 4278190080
834.37048 97.372787 191.98465 4278190080
984.9187 872.27216 438.90121 4278190080
370.66843 211.41525 709.78857 4278190080
896.03326 737.56982 709.01935 4278190080
472.05194 293.5813 140.80038 4278190080
368.83124 19.123993 952.73755 4278190080
385.95557 208.12871 185.25345 4278190080
149.15404 441.35422 635.47247 4278190080
538.89575 943.34033 16.083069 4278190080
981.79376 532.57861 518.75934 4278190080
77.361382 342.94913 616.13208 4278190080
269.34604 303.8678 464.40424 4278190080
708.24725 674.53619 675.81952 4278190080
394.0358 546.56946 389.38934 4278190080
79.055138 1018.6214 682.97064 4278190080
219.85553 363.45264 702.0946 4278190080
148.59305 749.4082 910.22333 4278190080
333.8465 898.56226 327.57755 4278190080
969.31897 413.45798 246.91791 4278190080
985.40204 371.25174 779.49652 4278190080
480.16135 448.61313 98.445633 4278190080
72.293457 717.95917 402.31342 4278190080
536.69769 402.20642 52.849648 4278190080
188.5172 796.24219 599.41913 4278190080
577.90656 875.29736 594.04053 4278190080
236.87718 71.152878 957.49316 4278190080
938.9718 219.74593 682.90137 4278190080
825.19513 553.59241 557.46362 4278190080
128.77269 498.91138 970.92157 4278190080
375.69058 460.31342 318.17334 4278190080
131.18712 940.47479 766.78644 4278190080
229.63275 1012.7682 460.74564 4278190080
631.94617 525.46594 862.95203 4278190080
684.79584 713.98315 635.19427 4278190080
260.21494 267.88968 486.49161 4278190080
854.25549 504.76688 557.64447 4278190080
787.7486 419.73868 777.39038 4278190080
446.64999 220.93384 306.98282 4278190080
1004.1136 349.70651 805.89423 4278190080
951.03522 725.39709 242.20761 4278190080
245.20854 856.58423 158.68239 4278190080
1011.995 62.216995 147.45062 4278190080
448.74063 694.16315 672.91656 4278190080
287.69266 354.95901 362.89969 4278190080
922.8869 615.17395 630.78937 4278190080
385.37851 445.42941 111.55625 4278190080
943.02301 209.17804 531.29492 4278190080
696.41339 655.82806 752.22876 4278190080
1003.3962 635.94165 77.935295 4278190080
785.29041 562.97687 803.3324 4278190080
3.4980478 808.18542 635.91669 4278190080
162.18044 796.18042 698.13367 4278190080
309.63107 220.92102 368.29684 4278190080
982.54761 508.61368 723.25586 4278190080
321.44733 407.50061 314.42978 4278190080
952.23669 792.87915 759.85919 4278190080
39.79295 711.90216 969.03723 4278190080
571.08789 384.31555 600.8653 4278190080
299.31665 363.71176 212.80692 4278190080
377.25195 125.0022 775.78375 4278190080
156.58438 128.50024 559.96918 4278190080
792.50104 290.68069 332.14957 4278190080
466.6347 600.31177 553.07062 4278190080
834.93152 558.85938 37.684277 4278190080
534.18738 880.3067 445.18488 4278190080
848.61713 808.5434 214.06401 4278190080
584.47632 848.33636 925.96613 4278190080
529.51355 395.42422 286.28168 4278190080
106.37881 694.74091 649.99347 4278190080
319.18573 47.992847 774.99567 4278190080
70.969513 204.57722 903.49591 4278190080
630.93866 997.07825 170.17661 4278190080
963.08826 439.71295 770.48834 4278190080
492.15884 250.64447 305.34775 4278190080
529.84314 784.83185 161.65443 4278190080
975.02802 609.44897 970.19781 4278190080
165.09201 169.92528 794.53418 4278190080
67.058151 699.43884 165.95842 4278190080
353.33984 805.81763 860.69934 4278190080
1003.3333 101.00338 908.69214 4278190080
754.32898 171.9729 89.269386 4278190080
633.82489 802.91156 62.347645 4278190080
804.00146 741.99982 502.06061 4278190080
550.48987 210.15868 752.70508 4278190080
855.83759 740.00183 513.53693 4278190080
1017.492 691.02979 98.985863 4278190080
963.68988 856.12183 268.91113 4278190080
734.22406 923.17999 968.34998 4278190080
900.1825 252.51981 750.1676 4278190080
736.88177 231.8531 851.17102 4278190080
621.57391 986.18207 1023.1439 4278190080
710.84332 596.00696 802.05548 4278190080
773.19098 376.00842 520.0553 4278190080
251.25157 926.49829 730.21399 4278190080
1003.9566 758.33588 446.21582 4278190080
493.49353 751.82788 113.24561 4278190080
592.47937 691.51776 969.36743 4278190080
861.3905 401.74179 868.54742 4278190080
805.74048 277.92426 97.0672 4278190080
531.90814 1014.806 328.92029 4278190080
359.07913 612.38 291.10236 4278190080
358.22305 299.2233 887.10931 4278190080
136.27853 48.414276 239.11771 4278190080
656.33386 299.66583 141.61597 4278190080
362.54785 279.62247 899.95184 4278190080
808.76367 773.11603 627.77972 4278190080
922.00928 341.5954 295.29745 4278190080
867.37671 178.98593 697.03925 4278190080
711.92413 984.72644 974.9635 4278190080
808.99133 492.63458 965.76953 4278190080
113.9116 851.71368 554.14954 4278190080
405.01395 185.93675 853.3728 4278190080
268.12323 322.21527 901.78711 4278190080
507.24094 978.54913 177.45294 4278190080
648.85693 317.09698 457.07541 4278190080
524.80872 101.86065 206.19142 4278190080
128.58844 1023.8699 547.7868 4278190080
423.88589 867.24664 726.77277 4278190080
96.925117 555.17072 687.49921 4278190080
47.888611 340.16205 156.13377 4278190080
1013.6581 454.07364 1007.8475 4278190080
543.80768 859.08759 169.78424 4278190080
373.18048 103.21084 491.99951 4278190080
250.96758 610.45178 446.54865 4278190080
428.42053 235.30872 763.64563 4278190080
885.49597 760.11743 865.50629 4278190080
67.68737 888.70587 865.37622 4278190080
615.47418 288.59177 708.62286 4278190080
318.24695 385.51691 239.79358 4278190080
1005.7462 433.40552 579.95563 4278190080
137.87991 423.06366 10.029281 4278190080
121.7274 966.87134 869.11688 4278190080
291.51163 316.05179 972.3277 4278190080
783.51117 567.01935 558.77954 4278190080
206.05978 995.43988 794.0882 4278190080
969.70544 856.93585 530.20569 4278190080
811.21167 924.62323 394.91156 4278190080
652.58789 516.09741 683.50336 4278190080
337.21072 834.34436 45.020229 4278190080
577.00433 816.09052 478.42575 4278190080
132.95995 953.9704 901.48938 4278190080
142.98923 51.697823 844.36072 4278190080
1012.1061 343.20944 136.41249 4278190080
960.43384 102.7206 703.43188 4278190080
495.21335 308.7804 674.87177 4278190080
265.30157 254.48581 507.80762 4278190080
795.50726 41.697495 408.43082 4278190080
166.41879 694.2854 924.52826 4278190080
849.92212 7.4961171 734.87262 4278190080
894.94238 584.50043 526.96307 4278190080
349.3681 717.46039 456.93353 4278190080
226.85748 860.44958 508.63135 4278190080
47.218193 848.55573 851.84082 4278190080
183.63069 784.98956 954.5614 4278190080
887.06256 256.20291 239.3418 4278190080
537.93433 521.50446 493.82761 4278190080
21.741943 293.01169 535.52509 4278190080
430.17276 459.43048 205.81049 4278190080
330.70102 285.35263 213.30661 4278190080
41.573597 156.29498 797.80701 4278190080
568.53668 505.66309 491.26743 4278190080
1.4702201 732.52057 327.71704 4278190080
510.10156 779.73877 152.27275 4278190080
337.94238 963.36945 937.26233 4278190080
268.50378 826.43201 169.46523 4278190080
507.84558 340.36633 690.96967 4278190080
1001.6732 362.10828 983.98138 4278190080
513.1983 792.28107 419.4119 4278190080
719.00879 98.982063 704.76453 4278190080
932.31537 140.55566 861.05951 4278190080
706.12244 709.09235 342.7226 4278190080
173.38983 710.56256 51.243172 4278190080
501.10687 196.66414 830.98193 4278190080
653.37964 534.60651 770.35138 4278190080
566.64197 803.11029 572.78345 4278190080
736.10718 286.95587 913.14978 4278190080
403.07684 264.62906 251.25804 4278190080
363.05823 777.82733 19.539104 4278190080
782.47009 472.83612 118.52116 4278190080
463.23462 381.15149 259.07681 4278190080
300.29413 63.273903 968.16919 4278190080
643.01672 236.66374 654.73175 4278190080
694.25989 737.77063 851.39587 4278190080
501.24182 367.15024 362.00241 4278190080
247.59323 933.79218 141.11272 4278190080
820.37665 645.89929 428.0686 4278190080
709.52643 24.976166 692.69763 4278190080
960.78448 388.03439 446.52499 4278190080
980.32355 146.50452 919.36115 4278190080
74.844734 609.73914 276.5126 4278190080
333.92157 910.03326 339.7865 4278190080
278.09073 529.04999 576.45026 4278190080
932.82251 199.30988 290.22086 4278190080
760.21838 700.5517 657.37109 4278190080
98.220825 948.14496 567.16327 4278190080
239.33354 744.52161 189.06256 4278190080
667.40216 430.048 214.03873 4278190080
336.09979 366.83249 602.07312 4278190080
782.62482 323.15604 748.57764 4278190080
677.9859 398.00079 334.31677 4278190080
954.49854 731.92236 220.35005 4278190080
270.28503 1010.0131 749.40002 4278190080
846.73529 918.83557 948.70996 4278190080
112.95614 655.05402 625.26166 4278190080
770.32721 753.27484 549.40662 4278190080
313.49045 992.60834 269.92819 4278190080
502.55301 636.0105 699.9762 4278190080
716.59174 972.11029 42.808701 4278190080
294.66486 730.73511 365.96475 4278190080
19.242512 384.72101 763.96552 4278190080
353.5593 315.21951 471.88788 4278190080
573.90936 585.50458 457.90097 4278190080
299.30942 408.23984 352.73654 4278190080
224.01933 521.19598 1007.7905 4278190080
849.28101 267.52319 737.06537 4278190080
374.68759 581.01361 705.67371 4278190080
644.61578 59.566647 317.6842 4278190080
320.59201 776.15839 265.79453 4278190080
363.4007 46.823254 996.5296 4278190080
729.36548 66.065765 357.25061 4278190080
469.33099 419.62506 672.47009 4278190080
941.21887 993.53442 233.97467 4278190080
375.11981 268.84381 642.21454 4278190080
727.85638 492.86316 139.41049 4278190080
711.64691 318.14413 406.93365 4278190080
424.71225 692.83173 987.94733 4278190080
106.38597 313.44751 23.51395 4278190080
424.07019 634.03949 799.67236 4278190080
689.86469 997.44025 846.49561 4278190080
662.39429 702.80566 912.56134 4278190080
1019.6449 148.13666 308.18643 4278190080
668.11499 65.355522 277.72083 4278190080
902.08966 440.47534 546.56464 4278190080
520.3042 144.33171 15.427807 4278190080
659.71466 855.97858 333.57193 4278190080
42.648342 256.69086 2.4036622 4278190080
6.5956473 363.07681 315.85117 4278190080
30.109598 787.14703 949.89069 4278190080
829.78192 453.01172 923.33087 4278190080
652.27753 91.405998 602.1366 4278190080
540.83887 87.050888 750.27325 4278190080
849.02533 755.16589 815.62878 4278190080
102.74613 633.25555 232.1041 4278190080
649.31079 129.55975 376.43579 4278190080
664.73859 789.27441 208.4144 4278190080
998.31055 831.92279 465.10526 4278190080
1000.7142 838.51843 828.18207 4278190080
292.56537 868.62799 591.3291 4278190080
218.45604 674.40997 20.340794 4278190080
117.78693 302.68747 111.74679 4278190080
719.92352 843.52637 198.79768 4278190080
446.19675 668.55164 953.96356 4278190080
237.82549 771.29779 563.21912 4278190080
469.9296 396.60858 692.77887 4278190080
846.36542 37.347176 458.05334 4278190080
30.779793 11.657713 265.9761 4278190080
495.88504 1012.3719 80.494522 4278190080
300.06714 280.93729 949.12256 4278190080
891.39624 499.39331 599.53247 4278190080
911.737 617.18024 902.21997 4278190080
1023.4838 313.10376 721.74634 4278190080
198.28149 759.30048 366.298 4278190080
128.24506 997.12598 113.59581 4278190080
691.46417 443.05554 510.20441 4278190080
360.2431 265.42096 547.55157 4278190080
818.29645 296.20074 559.20929 4278190080
60.272537 792.08582 547.58118 4278190080
140.76706 68.152924 828.51849 4278190080
65.88961 959.54913 303.91177 4278190080
665.42212 847.28619 921.09204 4278190080
543.64209 846.76996 210.19579 4278190080
241.38844 21.051466 969.49628 4278190080
607.68646 149.29652 942.62225 4278190080
721.28229 840.76074 361.6778 4278190080
207.48666 177.00383 627.09875 4278190080
755.03821 995.30023 923.2995 4278190080
290.24753 31.572792 691.38525 4278190080
837.82874 172.33986 759.53821 4278190080
642.34717 238.22946 695.08734 4278190080
946.25897 903.65155 518.37354 4278190080
843.35101 423.29367 341.14349 4278190080
29.546791 664.68207 362.19495 4278190080
999.04303 248.36855 511.49149 4278190080
917.66528 969.65082 328.2522 4278190080
255.34309 153.13747 505.25604 4278190080
882.44183 908.17572 476.55627 4278190080
781.74133 174.4232 508.12909 4278190080
449.12659 1012.2519 680.46893 4278190080
184.66478 630.59912 918.69843 4278190080
879.75214 552.85809 798.34998 4278190080
374.12564 372.20908 197.64362 4278190080
715.2691 401.75586 862.32574 4278190080
53.464077 376.79892 86.694267 4278190080
564.95557 270.46423 32.345078 4278190080
893.20776 525.80731 185.48254 4278190080
374.46381 384.24915 69.658234 4278190080
851.02008 141.99046 244.08144 4278190080
335.14917 591.11707 232.33336 4278190080
1015.6181 775.7818 862.93243 4278190080
910.31653 631.53394 391.79053 4278190080
684.66644 1005.6595 763.99963 4278190080
882.31006 696.92871 141.75548 4278190080
720.6358 750.39276 518.55438 4278190080
807.33008 291.34833 789.01862 4278190080
839.67517 160.55609 290.82596 4278190080
1.1576881 535.0199 675.07513 4278190080
70.815926 362.03998 817.06555 4278190080
314.89737 697.18915 384.18262 4278190080
547.23071 688.80725 135.96445 4278190080
386.16318 575.12372 767.49835 4278190080
777.95374 235.79021 749.15796 4278190080
517.95331 94.100288 422.08664 4278190080
659.7088 814.73608 148.4794 4278190080
154.2632 598.06616 439.82773 4278190080
943.2818 413.7413 600.38379 4278190080
210.10777 414.89899 111.40369 4278190080
885.18286 485.7149 473.44366 4278190080
678.24847 800.6123 146.63281 4278190080
38.431065 323.84302 835.44006 4278190080
174.39551 710.00616 386.56378 4278190080
941.89386 463.9599 622.354 4278190080
667.05182 981.91321 716.45428 4278190080
65.138481 617.62201 507.19037 4278190080
213.61789 771.88519 81.256523 4278190080
653.44562 691.16699 494.99783 4278190080
229.82944 901.27478 909.89685 4278190080
341.23312 762.45764 371.61176 4278190080
814.67682 416.70612 148.22403 4278190080
961.30957 455.13718 472.06705 4278190080
772.74963 629.53265 158.07323 4278190080
135.31343 547.42657 622.03314 4278190080
757.66742 190.47841 579.94635 4278190080
450.1217 255.61688 173.56833 4278190080
957.31207 469.23477 945.45349 4278190080
14.568577 98.680389 612.62054 4278190080
509.56641 328.50983 489.89529 4278190080
395.46323 669.74298 228.35297 4278190080
767.07501 460.41974 645.05908 4278190080
915.29901 397.72934 76.196243 4278190080
363.36606 146.47899 705.72894 4278190080
521.43927 281.79242 229.15549 4278190080
119.47239 15.459846 419.63391 4278190080
699.4187 465.58154 675.25079 4278190080
872.98706 398.89359 120.48557 4278190080
794.44055 413.46216 219.16595 4278190080
383.06107 923.02856 547.67578 4278190080
872.95636 294.49182 193.41873 4278190080
77.309341 37.566795 653.8385 4278190080
722.36841 952.86578 27.567825 4278190080
798.56464 292.23184 174.04681 4278190080
480.29358 813.67114 455.83923 4278190080
709.4491 933.14349 471.2991 4278190080
105.08298 608.56226 936.88062 4278190080
780.33374 457.54926 311.77423 4278190080
900.81934 227.98981 725.23639 4278190080
95.985291 611.0509 624.26495 4278190080
643.66107 460.00726 918.75677 4278190080
837.07977 537.31659 956.32355 4278190080
466.91827 235.68503 885.18939 4278190080
494.48611 10.249684 153.42123 4278190080
668.5329 490.54327 967.09235 4278190080
100.37218 175.99236 876.2359 4278190080
571.67126 281.07535 460.7981 4278190080
484.55191 37.409107 918.34735 4278190080
796.32611 938.22845 122.33718 4278190080
497.5625 10.213734 733.38806 4278190080
97.827469 653.87482 169.39532 4278190080
1016.5842 466.95459 706.71191 4278190080
948.90784 933.87286 942.39697 4278190080
810.09717 404.35898 952.64667 4278190080
963.51843 48.891907 419.18991 4278190080
906.61078 149.26408 595.18225 4278190080
758.84668 720.93536 876.25763 4278190080
195.64478 181.48724 913.66669 4278190080
89.992142 977.81335 827.89514 4278190080
212.32932 451.37589 838.10889 4278190080
945.71741 549.20337 467.9837 4278190080
91.112717 541.7876 934.93829 4278190080
797.82465 466.6954 844.81116 4278190080
716.22162 252.7926 225.17015 4278190080
644.86823 192.31102 274.06207 4278190080
40.058147 74.921814 423.32614 4278190080
635.24042 833.76849 120.26149 4278190080
487.49802 5.4132433 301.74875 4278190080
377.16473 95.40538 255.5621 4278190080
181.05988 307.73471 706.93799 4278190080
1019.1688 229.45209 232.14133 4278190080
463.15247 320.56479 773.92896 4278190080
374.09073 94.38945 216.62433 4278190080
194.90192 810.61102 469.41693 4278190080
420.07205 431.47928 661.72797 4278190080
694.13409 471.53745 736.64978 4278190080
93.460266 82.777847 546.41827 4278190080
213.72176 570.27588 551.83148 4278190080
515.47046 947.44061 647.23688 4278190080
771.03259 104.50046 954.97156 4278190080
453.97058 99.669228 160.42368 4278190080
686.11188 562.82166 480.98846 4278190080
436.04083 936.91241 575.37793 4278190080
652.66516 107.81433 361.98898 4278190080
98.0821 527.88641 793.46826 4278190080
759.81006 198.02052 241.00569 4278190080
472.45984 291.48077 323.78354 4278190080
1018.8781 505.20255 894.05939 4278190080
546.70959 1020.673 817.5 4278190080
169.94647 767.70563 922.00043 4278190080
100.91806 197.67618 1021.6697 4278190080
261.34174 883.78809 560.49133 4278190080
742.3302 295.82892 473.40375 4278190080
293.70813 948.49408 581.21808 4278190080
655.69708 22.576164 85.104492 4278190080
425.16537 782.38623 283.125 4278190080
666.17108 230.84607 574.60577 4278190080
989.95459 225.72417 55.808334 4278190080
860.01398 772.43378 52.481358 4278190080
653.51398 942.38025 820.18695 4278190080
551.5144 19.298306 1017.8632 4278190080
549.18408 280.64005 877.65125 4278190080
85.675392 1022.9703 149.48015 4278190080
559.07916 292.67838 73.974213 4278190080
116.29724 948.37549 96.550377 4278190080
201.40173 349.54086 878.93658 4278190080
484.52673 1015.7119 85.782684 4278190080
35.132538 981.6665 311.50687 4278190080
90.940872 817.68048 59.94062 4278190080
143.42223 447.19446 1002.3209 4278190080
963.60919 998.70886 1021.6192 4278190080
957.47235 523.89294 278.25922 4278190080
811.1236 609.5683 277.22946 4278190080
960.60376 144.64746 569.90784 4278190080
10.577972 260.9447 494.28333 4278190080
107.12835 462.34644 843.82422 4278190080
986.06494 946.87317 835.53613 4278190080
47.847641 982.00574 793.20264 4278190080
359.35449 48.946594 586.88312 4278190080
419.2951 192.36882 10.07759 4278190080
397.616 131.97803 1008.7864 4278190080
395.23517 65.450386 508.67935 4278190080
673.49438 876.57397 94.247681 4278190080
950.72382 813.17773 238.89514 4278190080
496.63165 823.75574 499.83984 4278190080
990.91498 930.88409 962.18628 4278190080
810.7392 892.94904 885.05945 4278190080
622.27533 940.79669 843.06519 4278190080
391.47794 276.15118 892.01178 4278190080
978.36108 695.44629 60.380615 4278190080
988.43866 69.062279 192.35864 4278190080
973.2251 464.29742 257.80902 4278190080
457.90445 113.79181 110.38302 4278190080
552.15216 40.515633 923.56079 4278190080
791.0473 537.14728 723.31647 4278190080
266.88712 504.06229 630.20056 4278190080
205.07343 290.80148 499.1496 4278190080
66.132904 913.07678 415.94626 4278190080
909.19812 280.55472 692.09741 4278190080
777.2099 234.91577 363.54373 4278190080
837.59052 199.35442 432.60599 4278190080
5.9491591 148.57951 896.90344 4278190080
263.75818 606.48395 1010.6953 4278190080
374.1412 134.63611 27.210867 4278190080
273.70197 925.68341 564.35815 4278190080
997.01843 168.57051 44.420464 4278190080
603.21899 373.64395 335.22195 4278190080
78.368576 439.77686 224.29874 4278190080
494.31482 324.97495 504.85345 4278190080
162.41226 78.184845 739.76923 4278190080
525.95599 915.77539 939.12366 4278190080
958.56195 921.72455 63.70314 4278190080
831.46539 161.48271 670.18713 4278190080
818.16064 535.6239 804.82324 4278190080
845.37152 809.32587 706.50659 4278190080
385.72968 782.3443 875.07709 4278190080
430.15015 361.56332 224.72105 4278190080
765.37207 439.93188 664.49792 4278190080
989.67084 934.2467 989.47284 4278190080
470.52426 72.658989 43.657696 4278190080
186.29347 598.61499 959.43304 4278190080
101.41711 533.17694 857.15759 4278190080
165.12024 340.64233 1018.6403 4278190080
835.30737 134.80298 530.26422 4278190080
616.13055 980.1745 315.59009 4278190080
298.63718 341.90414 73.93441 4278190080
149.71429 772.05426 435.49771 4278190080
374.43533 513.42633 875.42963 4278190080
14.933243 479.09717 785.67633 4278190080
1004.4061 949.62146 858.33533 4278190080
24.063786 111.91491 432.95029 4278190080
983.49683 213.33202 966.12726 4278190080
816.65442 378.45227 282.76956 4278190080
811.29474 189.75961 417.57254 4278190080
317.55896 805.8902 373.74701 4278190080
633.14905 80.527351 715.65118 4278190080
707.08344 230.24164 463.70544 4278190080
118.58117 604.677 977.13184 4278190080
994.0108 619.61023 432.22897 4278190080
755.68713 600.0163 357.85043 4278190080
590.02246 624.08008 469.76532 4278190080
1022.9728 583.57697 683.09735 4278190080
965.09998 376.23138 37.549599 4278190080
223.86955 163.52611 227.30922 4278190080
641.44208 481.08505 9.1993961 4278190080
1015.1891 90.234093 89.726746 4278190080
706.84027 797.31757 319.96838 4278190080
146.54575 915.89868 924.64539 4278190080
99.677567 885.90948 520.25562 4278190080
531.90656 617.59662 96.271912 4278190080
889.75696 183.61906 720.35199 4278190080
335.52231 182.59181 279.92896 4278190080
1018.6196 123.6918 656.16034 4278190080
32.169243 347.56134 819.68646 4278190080
259.47845 989.00342 276.77151 4278190080
268.67786 980.19257 367.00562 4278190080
358.4046 663.03284 140.32315 4278190080
678.37299 809.57861 32.221848 4278190080
579.01837 909.25616 918.13135 4278190080
75.273956 417.16272 511.72794 4278190080
171.54587 282.91968 695.34705 4278190080
891.89789 618.44202 877.93884 4278190080
147.82684 613.06165 1001.6306 4278190080
803.98718 645.2309 325.19199 4278190080
599.67365 904.70935 290.19543 4278190080
876.44513 149.38718 246.38799 4278190080
219.45076 507.79178 909.42084 4278190080
359.7739 162.16476 694.99945 4278190080
391.99576 741.18311 580.25562 4278190080
286.12711 816.45709 997.41833 4278190080
797.85504 988.00293 256.33801 4278190080
469.20206 855.90082 874.78003 4278190080
323.1409 1003.7277 463.84164 4278190080
300.77155 783.71484 85.07251 4278190080
625.9635 359.38849 989.78186 4278190080
916.15894 211.83365 115.16902 4278190080
138.54691 431.28442 622.96082 4278190080
23.967745 791.05835 785.12555 4278190080
718.96716 159.05408 502.30872 4278190080
275.22278 445.18118 294.76581 4278190080
248.6411 219.03622 258.76877 4278190080
504.9791 688.23828 90.669594 4278190080
355.75909 1011.3792 70.397278 4278190080
819.60071 288.15073 854.11212 4278190080
904.67322 914.11426 189.50064 4278190080
870.45508 806.27319 401.33429 4278190080
985.62408 944.82007 832.61871 4278190080
584.5849 968.78784 599.67706 4278190080
345.71048 663.755 758.73114 4278190080
848.01923 938.97778 179.91231 4278190080
118.785 163.61887 398.94852 4278190080
377.55374 668.59796 63.18681 4278190080
468.22336 0.35706615 50.565994 4278190080
538.62061 819.95782 338.71671 4278190080
368.73276 700.63104 228.83095 4278190080
558.2334 547.08612 11.104104 4278190080
959.56769 508.71024 955.92419 4278190080
768.1864 69.295143 900.71198 4278190080
343.86346 415.00565 540.46698 4278190080
78.594589 239.02484 455.44476 4278190080
258.5069 357.80984 619.06366 4278190080
657.45544 735.36359 263.66162 4278190080
720.64221 179.58694 264.01868 4278190080
771.20819 718.20758 59.976471 4278190080
85.924934 62.940338 760.60748 4278190080
314.75586 621.17377 283.69363 4278190080
325.85999 556.74146 792.40387 4278190080
257.78415 300.92789 861.69904 4278190080
134.49615 644.79138 252.70465 4278190080
674.96313 723.38593 491.72949 4278190080
106.40793 981.89282 849.53937 4278190080
725.47156 615.34827 560.90295 4278190080
989.13318 311.99048 740.48987 4278190080
229.15186 59.198715 434.69745 4278190080
289.12833 145.12364 497.63779 4278190080
25.735836 459.87952 94.811539 4278190080
309.42947 785.7395 651.55298 4278190080
77.833336 19.523651 952.4809 4278190080
939.53235 154.01981 573.27222 4278190080
168.237 828.98297 272.6582 4278190080
659.96649 935.39087 230.55104 4278190080
485.50583 636.86243 845.89929 4278190080
22.408775 601.99561 133.8898 4278190080
762.89868 831.14746 193.08852 4278190080
173.59612 96.275803 338.21216 4278190080
671.23389 122.01164 798.09167 4278190080
766.04547 431.4411 559.83118 4278190080
393.59845 509.27444 579.3548 4278190080
322.07935 424.80679 733.37463 4278190080
895.35156 593.04382 538.3576 4278190080
144.00978 229.01031 449.74847 4278190080
374.56082 714.51617 62.610939 4278190080
196.46013 736.92493 664.60657 4278190080
330.34991 475.82358 471.75406 4278190080
523.43842 649.41968 568.02985 4278190080
861.65063 296.65359 690.0415 4278190080
635.74231 38.699028 97.482605 4278190080
171.57346 432.29749 606.75708 4278190080
750.92828 754.37683 7.5638561 4278190080
460.30292 625.72839 600.60767 4278190080
998.66052 769.73816 829.61798 4278190080
424.409 120.299 520.13409 4278190080
487.01993 316.75912 233.05904 4278190080
127.6265 647.10907 708.88263 4278190080
599.38055 146.5475 334.30231 4278190080
143.4104 1008.1981 630.95587 4278190080
833.4519 619.94037 669.65491 4278190080
930.93451 791.51385 77.952408 4278190080
513.69159 518.44214 832.32922 4278190080
521.25543 978.74506 434.05762 4278190080
97.863083 953.40558 179.79579 4278190080
927.48108 353.81454 300.09479 4278190080
423.61517 840.83447 616.85388 4278190080
656.67419 968.46094 239.96297 4278190080
341.55682 543.84149 386.51047 4278190080
675.85913 687.25195 370.70859 4278190080
282.81506 496.70383 990.64899 4278190080
952.46997 403.63834 758.16284 4278190080
6.4223876 917.3299 252.60495 4278190080
838.75159 414.58533 207.35001 4278190080
248.80922 512.44843 136.75555 4278190080
428.60501 415.92947 490.5701 4278190080
728.69977 839.54462 307.40457 4278190080
321.55368 472.21887 251.86554 4278190080
561.51666 813.7757 795.70703 4278190080
948.0271 465.63486 458.95898 4278190080
294.73572 748.44989 955.66278 4278190080
261.38467 676.91986 335.30115 4278190080
1019.5475 683.34229 228.63104 4278190080
248.15245 498.09387 643.21637 4278190080
455.50244 746.90308 131.66479 4278190080
592.258 151.50809 547.59424 4278190080
58.828114 880.20789 363.13892 4278190080
366.2327 177.76155 835.35779 4278190080
618.09821 739.2782 625.13348 4278190080
389.80527 663.30536 66.768318 4278190080
848.76422 958.04108 815.2182 4278190080
780.42706 195.42572 468.13809 4278190080
91.72818 190.97322 127.48038 4278190080
320.35922 439.12567 625.57422 4278190080
963.57562 894.62811 348.47733 4278190080
71.240395 462.88614 499.98541 4278190080
618.83466 521.71423 356.1933 4278190080
981.97357 887.94696 533.95483 4278190080
793.33136 482.04517 249.23306 4278190080
394.46481 871.8504 912.53839 4278190080
461.23315 696.61469 846.57947 4278190080
252.45137 453.04169 18.005177 4278190080
720.58948 544.7699 208.97839 4278190080
848.06982 865.12909 648.10406 4278190080
449.6441 804.70471 518.73218 4278190080
798.12146 875.94507 981.61835 4278190080
274.10684 470.77975 479.33261 4278190080
630.30011 428.75333 343.27954 4278190080
140.25497 198.08469 825.32471 4278190080
389.48804 592.5495 673.17511 4278190080
278.02643 29.782658 345.78979 4278190080
100.60589 282.23404 798.83148 4278190080
118.61107 1002.8235 319.60138 4278190080
327.58948 826.89337 160.73047 4278190080
975.69354 252.53745 965.43518 4278190080
470.42575 26.658873 817.38025 4278190080
428.0441 300.76572 264.16 4278190080
907.37671 931.06586 692.91333 4278190080
226.65625 47.320839 890.99805 4278190080
27.980965 436.80887 459.54755 4278190080
701.15607 714.83533 489.3302 4278190080
22.945887 815.44122 771.56421 4278190080
821.7774 934.05225 750.3877 4278190080
117.37874 237.64174 553.28107 4278190080
278.10919 189.33528 805.81854 4278190080
219.54436 659.76105 832.47742 4278190080
12.924609 63.805122 109.24311 4278190080
277.08463 971.18182 16.308969 4278190080
969.99792 173.83809 63.629807 4278190080
836.99597 201.81905 500.43869 4278190080
272.54352 902.97516 191.274 4278190080
761.87372 925.92102 1006.7152 4278190080
509.43793 723.69843 916.76746 4278190080
235.82565 841.07715 130.40923 4278190080
789.10675 95.186348 319.74451 4278190080
570.92523 314.73071 979.50555 4278190080
379.40262 327.65533 19.310656 4278190080
488.64575 604.73993 990.49249 4278190080
504.95471 550.73792 140.33057 4278190080
568.58453 363.73386 342.14963 4278190080
45.023201 636.2774 221.12477 4278190080
236.2972 374.15109 123.0458 4278190080
219.01241 883.58899 846.7442 4278190080
111.77989 95.414673 663.82135 4278190080
242.18912 884.52142 759.00769 4278190080
561.93365 431.44662 49.738422 4278190080
517.43915 810.84924 377.39374 4278190080
536.74982 275.495 982.13367 4278190080
503.24231 780.44971 508.87155 4278190080
643.57288 325.03421 872.60541 4278190080
985.72247 370.05743 484.88281 4278190080
182.84726 606.35461 859.03387 4278190080
305.89307 825.367 718.62292 4278190080
128.63727 937.14691 814.0376 4278190080
792.45862 155.33604 674.55896 4278190080
527.46637 717.26965 82.005615 4278190080
577.20477 210.70883 892.85486 4278190080
954.59851 747.45862 144.34988 4278190080
912.73218 226.70094 924.79962 4278190080
397.60373 870.2738 225.83382 4278190080
246.20917 831.99628 595.89124 4278190080
731.09198 1014.8436 178.24586 4278190080
566.12585 296.73663 1003.6129 4278190080
260.74878 425.3739 916.75983 4278190080
50.786362 193.83252 48.095879 4278190080
725.34534 721.29889 765.36554 4278190080
807.35095 274.50363 976.0744 4278190080
676.20581 205.10213 699.53302 4278190080
820.55573 93.834312 926.23395 4278190080
721.35535 491.43805 772.50775 4278190080
947.18915 737.64722 580.50409 4278190080
519.08038 444.7392 571.34766 4278190080
697.32623 1010.8651 868.08423 4278190080
676.93915 247.61385 269.45816 4278190080
569.69897 298.40021 463.29068 4278190080
617.79486 1023.7455 160.58954 4278190080
359.1604 807.0965 435.09317 4278190080
311.2348 459.30234 640.19531 4278190080
1010.7678 255.85806 734.0296 4278190080
913.00177 977.21338 201.46767 4278190080
661.50952 900.40253 939.11487 4278190080
218.01363 395.48291 359.8541 4278190080
789.36127 68.809151 346.71915 4278190080
633.4455 745.74829 594.33301 4278190080
902.90369 291.4473 892.73322 4278190080
342.19434 909.24213 892.47876 4278190080
502.78387 244.40254 675.57526 4278190080
937.87708 555.63733 110.87758 4278190080
554.07233 542.40515 366.73566 4278190080
264.10196 431.40692 319.94904 4278190080
465.56961 68.916466 196.35156 4278190080
380.68451 286.93008 591.83447 4278190080
740.53857 52.291355 660.64362 4278190080
63.257729 685.73688 382.39194 4278190080
657.5907 564.64056 673.83923 4278190080
526.32391 906.8349 559.08136 4278190080
394.80264 385.61874 803.48389 4278190080
46.377884 299.49579 335.12122 4278190080
157.25546 853.56812 877.52637 4278190080
523.99109 93.670097 284.93329 4278190080
843.94019 559.23969 353.84976 4278190080
16.291723 939.92419 640.77985 4278190080
608.12622 656.46283 693.07123 4278190080
244.76982 719.72052 354.80807 4278190080
627.16174 353.31125 919.44861 4278190080
277.00095 879.63513 802.28351 4278190080
836.08228 250.43781 163.90224 4278190080
615.56622 296.8157 463.39804 4278190080
950.68744 454.07117 292.96619 4278190080
804.21381 978.06226 386.63626 4278190080
65.147079 798.00244 945.87598 4278190080
418.99683 814.29413 861.80023 4278190080
35.77668 398.42035 494.263 4278190080
728.8479 643.19019 189.98354 4278190080
59.65596 246.35191 543.2948 4278190080
979.10455 523.35291 398.92993 4278190080
757.38806 335.43518 649.36774 4278190080
921.29028 951.0014 946.18341 4278190080
360.68832 877.68878 376.25458 4278190080
653.65454 657.90259 330.31686 4278190080
16.290791 723.04968 104.3193 4278190080
962.16675 118.0465 918.61346 4278190080
799.96698 153.82318 293.03381 4278190080
270.22998 882.67108 936.224 4278190080
460.21353 942.32703 158.5759 4278190080
1003.5083 897.43158 681.92877 4278190080
378.43823 630.81964 1017.364 4278190080
3.8059878 528.10999 944.36536 4278190080
949.98944 888.79828 798.05414 4278190080
302.24402 518.45282 431.95673 4278190080
632.56085 534.74359 131.00639 4278190080
736.88019 472.91037 249.05289 4278190080
631.49365 248.87737 402.87607 4278190080
924.52747 519.10736 261.54712 4278190080
836.7514 979.32086 179.87416 4278190080
995.32733 958.82916 53.305756 4278190080
653.2561 313.26743 684.12543 4278190080
646.62006 317.07339 188.23537 4278190080
566.98535 243.06282 53.033665 4278190080
341.03949 545.30682 571.48645 4278190080
772.99622 153.86772 82.230072 4278190080
904.00262 890.74792 555.14044 4278190080
129.0555 498.24155 804.01782 4278190080
531.93158 398.76898 299.12515 4278190080
793.4787 211.5204 254.44603 4278190080
973.35284 182.84772 189.27519 4278190080
2.6586208 836.10382 502.5426 4278190080
686.78406 458.72385 819.61603 4278190080
875.01941 1.7092142 38.678833 4278190080
928.05304 342.74872 583.98566 4278190080
475.53955 91.744934 737.85339 4278190080
557.76959 995.74756 604.60132 4278190080
88.910065 100.80305 78.842819 4278190080
892.92786 632.73462 477.61179 4278190080
168.05304 402.21332 689.1322 4278190080
422.49905 351.56619 871.97992 4278190080
611.77423 354.22479 684.08374 4278190080
90.316872 17.008839 118.80756 4278190080
909.93286 892.02826 120.51678 4278190080
948.61169 796.0813 463.2655 4278190080
508.59738 247.62085 555.01044 4278190080
222.45078 805.39044 526.758 4278190080
827.05206 894.30054 627.56104 4278190080
905.8949 763.22839 236.29564 4278190080
359.50668 931.28143 638.50897 4278190080
24.638885 329.78052 990.07513 4278190080
896.61877 941.55475 320.29993 4278190080
556.70251 7.8716373 337.30878 4278190080
675.51007 917.8045 205.33702 4278190080
796.02686 842.41626 1001.4183 4278190080
235.29237 327.01361 225.0392 4278190080
790.3028 549.46442 6.4296637 4278190080
293.06079 352.51645 900.73022 4278190080
920.62183 234.41135 639.95862 4278190080
132.91743 593.91803 547.24005 4278190080
771.42639 618.55695 877.02057 4278190080
737.50153 491.17572 794.57532 4278190080
33.801468 23.878246 802.44696 4278190080
371.11026 699.38837 696.25146 4278190080
576.44727 471.41522 514.66772 4278190080
553.8656 706.70758 841.68134 4278190080
778.90479 473.01038 367.14572 4278190080
785.33447 766.07117 719.66217 4278190080
662.06464 662.69293 954.07355 4278190080
278.02328 795.61041 523.99158 4278190080
825.26331 543.0368 118.54848 4278190080
678.28387 256.5383 609.72418 4278190080
448.85922 290.33978 633.60248 4278190080
227.3062 661.45001 308.99078 4278190080
923.55768 213.89729 780.40601 4278190080
414.2254 767.76288 463.11359 4278190080
231.90675 522.66766 936.12396 4278190080
599.05249 284.00217 678.19513 4278190080
294.71469 946.06683 316.88806 4278190080
224.78822 200.09009 88.498444 4278190080
748.77979 1.3534198 631.53522 4278190080
867.32831 679.63733 888.07355 4278190080
453.05249 104.49655 154.4133 4278190080
62.654938 331.80276 815.86334 4278190080
371.64572 231.36044 5.7606091 4278190080
128.05173 645.58588 773.5235 4278190080
591.16528 877.49261 272.19119 4278190080
503.28925 452.54514 556.19336 4278190080
157.48434 747.25983 478.26016 4278190080
474.37241 972.04803 678.35028 4278190080
562.87085 696.82782 679.70367 4278190080
170.40607 540.15613 335.341 4278190080
34.479588 993.20862 439.83755 4278190080
188.89288 31.863537 771.64032 4278190080
1004.7562 403.50925 1003.0007 4278190080
1010.5168 531.56097 624.58661 4278190080
760.04034 98.72628 478.07925 4278190080
8.2315159 602.0155 930.62439 4278190080
564.42487 759.49988 653.88416 4278190080
18.685036 209.87228 601.93219 4278190080
697.03528 772.7431 274.76004 4278190080
352.73898 943.14917 814.91614 4278190080
688.07996 977.62878 784.12476 4278190080
103.91751 142.52167 815.98828 4278190080
875.5578 123.27788 195.49756 4278190080
854.55853 109.79469 727.05853 4278190080
455.14517 869.83502 825.78479 4278190080
933.22443 878.06653 403.80035 4278190080
839.84875 418.49139 139.30023 4278190080
469.73294 437.17642 349.17252 4278190080
47.66515 110.21172 97.915649 4278190080
322.4252 462.95068 17.064842 4278190080
113.34135 127.03066 994.6936 4278190080
897.46613 230.94817 113.21529 4278190080
689.45441 82.505974 236.49316 4278190080
884.95197 937.06451 346.28787 4278190080
588.0105 368.20969 192.12286 4278190080
389.79529 277.43411 46.189392 4278190080
793.59564 93.282867 464.68079 4278190080
932.89587 563.01581 901.85724 4278190080
258.06839 610.68097 1012.069 4278190080
355.98401 933.10614 451.01962 4278190080
373.04886 22.447496 578.05029 4278190080
343.74249 919.91357 808.99847 4278190080
456.95779 585.36798 891.50446 4278190080
693.45093 446.31992 804.56897 4278190080
15.738811 10.330405 148.77867 4278190080
207.86168 400.1257 426.21277 4278190080
254.05107 169.72133 519.49567 4278190080
718.73187 78.617195 58.511456 4278190080
596.58905 336.68558 669.19244 4278190080
584.65802 692.66962 578.29858 4278190080
11.677652 41.71846 600.74603 4278190080
589.72797 385.46094 496.65967 4278190080
374.72641 842.41876 58.027645 4278190080
242.23087 511.86969 504.34756 4278190080
22.799839 527.60852 514.67798 4278190080
171.57851 735.47015 914.80365 4278190080
597.79126 989.52124 60.525009 4278190080
93.286942 684.25311 139.14221 4278190080
151.7984 256.84219 475.82779 4278190080
820.99078 841.50018 144.49738 4278190080
375.28937 853.17786 186.21584 4278190080
976.03546 418.90579 571.67676 4278190080
448.6951 793.6322 390.09552 4278190080
506.72275 11.863081 901.96521 4278190080
1011.0703 34.662922 405.5737 4278190080
501.74829 206.24144 117.04387 4278190080
392.55197 804.03271 82.565117 4278190080
453.07697 897.31964 766.81824 4278190080
592.21918 25.118055 1023.6604 4278190080
44.046959 846.10889 841.16058 4278190080
188.54433 197.39824 670.33844 4278190080
374.76016 149.43369 65.244255 4278190080
946.43695 598.12878 858.87646 4278190080
312.53244 80.851509 870.73956 4278190080
190.49765 67.921822 905.40247 4278190080
596.07135 569.6701 87.643913 4278190080
713.11523 962.22211 891.67664 4278190080
795.68036 391.29907 764.99628 4278190080
538.49854 983.51825 790.11438 4278190080
538.15894 3.5651979 612.22321 4278190080
355.31958 192.10953 809.62146 4278190080
1.6580257 566.86969 959.05511 4278190080
66.902283 489.30664 533.1839 4278190080
925.77875 801.83905 614.0354 4278190080
772.51831 992.33673 681.95721 4278190080
653.92078 564.40808 227.62735 4278190080
741.5647 253.52327 165.84944 4278190080
609.24133 25.203602 557.1485 4278190080
350.23764 563.70215 516.66675 4278190080
116.35198 77.861122 520.23193 4278190080
728.5752 433.18069 712.34143 4278190080
514.19666 434.83871 255.21115 4278190080
449.2518 501.741 744.51776 4278190080
982.43573 403.51974 522.35687 4278190080
572.47113 152.03807 490.69357 4278190080
230.42836 805.95886 31.101637 4278190080
458.05573 523.52356 284.62491 4278190080
623.90515 108.7649 309.82852 4278190080
157.05365 459.00253 873.5307 4278190080
673.7204 575.35449 951.39178 4278190080
169.95232 279.92972 360.57248 4278190080
882.29376 794.12634 795.41119 4278190080
113.50493 219.37816 273.15219 4278190080
858.02271 177.81386 676.67194 4278190080
356.37955 750.28497 828.71002 4278190080
847.07312 980.71332 610.66888 4278190080
878.17474 414.76907 110.19246 4278190080
138.79968 14.674213 218.95735 4278190080
448.6282 171.72786 677.9599 4278190080
298.15887 845.44824 229.31439 4278190080
225.55066 1015.4006 509.24411 4278190080
586.12317 873.69434 279.37045 4278190080
357.53433 987.19928 498.74863 4278190080
630.68652 821.22198 676.5625 4278190080
283.35849 153.60153 402.84747 4278190080
88.068527 1000.6747 359.56082 4278190080
698.73743 854.84943 774.3299 4278190080
808.92987 993.64911 789.00409 4278190080
3.8872404 418.27728 960.73193 4278190080
681.84711 716.43616 782.18018 4278190080
911.1615 941.98682 773.58075 4278190080
396.40564 504.10995 623.27509 4278190080
675.77612 861.64429 586.47437 4278190080
150.52472 468.33084 383.69635 4278190080
827.08722 751.68933 537.29791 4278190080
205.93468 839.75787 513.97253 4278190080
565.49548 514.4953 344.82196 4278190080
315.82535 299.42517 314.47107 4278190080
80.829422 303.31241 732.74835 4278190080
17.561367 985.15955 425.18451 4278190080
799.74158 872.32104 343.17133 4278190080
549.32233 244.72668 847.28125 4278190080
148.59743 920.50281 684.92554 4278190080
735.07178 47.027504 129.25639 4278190080
94.768158 874.11469 880.94574 4278190080
632.06604 56.049381 696.70355 4278190080
122.0386 621.54486 187.19887 4278190080
466.86057 937.37018 486.62402 4278190080
781.33167 1018.1996 789.93646 4278190080
490.08002 11.761002 751.09595 4278190080
915.26453 811.50256 599.41705 4278190080
234.43585 336.82489 844.14374 4278190080
57.717125 485.4223 740.64648 4278190080
742.6427 196.49409 787.67401 4278190080
871.89905 291.26227 637.7887 4278190080
728.84479 923.32831 693.83807 4278190080
401.54837 21.366905 291.38297 4278190080
588.74725 488.22748 204.75316 4278190080
51.371265 245.55911 198.95279 4278190080
841.30768 735.6391 210.71379 4278190080
568.40369 626.90369 1022.2164 4278190080
143.82069 861.33948 335.04123 4278190080
987.96442 919.05664 820.46356 4278190080
704.6109 637.69934 1016.9576 4278190080
468.28491 485.59839 284.21991 4278190080
82.073608 190.44319 183.5482 4278190080
775.91168 591.99158 204.91512 4278190080
43.294651 156.7388 693.14258 4278190080
248.04781 208.11006 938.70172 4278190080
447.00061 25.417761 650.34082 4278190080
657.71442 593.82141 253.24449 4278190080
655.93073 737.64215 90.584 4278190080
990.97198 701.60651 1009.6406 4278190080
787.43549 382.21744 623.33997 4278190080
780.39313 850.50232 84.938339 4278190080
40.613041 932.57593 275.38153 4278190080
224.16124 684.48767 867.37311 4278190080
429.07635 727.78229 0.11189175 4278190080
98.218941 975.83008 208.22195 4278190080
12.920641 398.83072 233.63971 4278190080
663.26147 32.545101 827.46112 4278190080
916.50598 688.47583 541.10327 4278190080
1007.09 655.44781 218.70981 4278190080
992.73059 418.88336 600.92725 4278190080
592.07056 175.27649 427.42957 4278190080
677.00891 215.88954 336.00552 4278190080
952.39044 440.05078 1020.4932 4278190080
795.76349 869.12714 724.27545 4278190080
795.87543 967.34607 676.10559 4278190080
1004.0974 980.26672 50.936275 4278190080
213.73708 619.5282 83.481377 4278190080
17.198215 512.03418 771.95721 4278190080
558.30151 495.12411 403.40506 4278190080
