# .PCD v0.7 - Point Cloud Data file format
VERSION 0.7
FIELDS x y z rgb
SIZE 4 4 4 4
TYPE F F F U
COUNT 1 1 1 1
WIDTH 1177
HEIGHT 1
VIEWPOINT 0 0 0 1 0 0 0
POINTS 1177
DATA ascii
575.55096 694.1347 1001.6702 4278190080
304.76474 123.59859 207.21289 4278190080
965.91473 400.90289 161.09265 4278190080
187.74576 743.09302 176.72881 4278190080
670.60449 980.48279 829.26147 4278190080
282.08527 920.56012 338.95084 4278190080
484.55023 299.45047 317.07968 4278190080
512.69348 191.71773 80.910492 4278190080
395.22607 121.48368 611.94525 4278190080
926.16467 653.14648 292.763 4278190080
460.62247 204.69742 986.89771 4278190080
438.29269 509.46216 86.496292 4278190080
645.50555 451.37689 487.39917 4278190080
806.59827 639.12268 206.4922 4278190080
983.32703 285.72717 162.97499 4278190080
788.5885 567.81244 59.535114 4278190080
103.53934 28.362675 358.9856 4278190080
420.61902 541.05615 550.70331 4278190080
501.52951 936.28223 672.18701 4278190080
89.474731 838.4469 301.33347 4278190080
382.23776 275.06937 506.03088 4278190080
345.13547 713.36206 1015.493 4278190080
431.63174 334.86765 442.86993 4278190080
919.03094 117.46587 57.992599 4278190080
101.52312 76.792908 343.71976 4278190080
264.49811 865.38141 911.53223 4278190080
324.03323 968.92078 939.8949 4278190080
683.0188 365.53976 456.95102 4278190080
209.72212 867.06927 369.23325 4278190080
881.90912 956.54401 183.68015 4278190080
159.24258 314.78177 458.74951 4278190080
665.27344 659.91724 148.11157 4278190080
656.76648 67.548965 482.97919 4278190080
75.636452 986.5799 600.44507 4278190080
133.62904 64.10302 677.23798 4278190080
477.34882 328.60114 518.61938 4278190080
364.88101 652.6344 463.54016 4278190080
280.77591 311.6532 829.07996 4278190080
737.72693 521.37531 672.14923 4278190080
82.960159 379.28442 604.69324 4278190080
266.64032 538.52704 919.47498 4278190080
725.38983 179.80048 555.39221 4278190080
873.5014 836.56696 622.94116 4278190080
332.48059 912.20343 585.52106 4278190080
932.92566 21.832476 649.62408 4278190080
586.16364 499.1813 978.22522 4278190080
80.783043 864.06232 606.85956 4278190080
544.32318 120.8382 918.51276 4278190080
349.40314 858.56512 415.88806 4278190080
1021.5524 941.52527 795.17249 4278190080
602.24554 184.16559 309.69952 4278190080
497.72055 909.55542 489.5 4278190080
29.11274 759.05682 302.06696 4278190080
652.05389 67.537415 190.2704 4278190080
213.57495 1000.4631 212.10287 4278190080
863.19904 562.62671 711.28418 4278190080
817.42426 643.40979 551.3465 4278190080
400.28381 163.73297 672.18469 4278190080
294.7966 513.13611 506.74979 4278190080
710.68469 510.68845 424.27509 4278190080
481.85718 88.934013 608.44067 4278190080
791.5567 586.65454 493.99606 4278190080
257.05667 615.76727 229.05289 4278190080
559.12366 243.8212 296.5903 4278190080
749.39404 457.39615 273.05341 4278190080
961.49695 296.59518 835.68011 4278190080
648.78107 90.019409 455.0899 4278190080
176.12756 490.30322 618.82288 4278190080
848.31226 785.09979 107.95898 4278190080
331.06204 471.78448 618.64746 4278190080
755.3371 953.64166 707.58142 4278190080
339.77777 721.19836 270.23599 4278190080
833.77386 978.255 886.0033 4278190080
38.826744 513.37866 105.82448 4278190080
335.41705 238.77274 563.22064 4278190080
608.47046 176.26965 859.8158 4278190080
420.15057 825.05078 949.83521 4278190080
875.24048 1001.1783 416.13843 4278190080
470.06332 825.49054 177.23825 4278190080
578.02234 132.5526 649.02271 4278190080
172.66975 887.88971 578.66437 4278190080
880.25122 203.6675 275.86273 4278190080
126.48718 13.44134 230.11775 4278190080
1012.4905 52.268082 743.49646 4278190080
94.314957 387.68512 982.26917 4278190080
657.53558 996.15558 134.53882 4278190080
493.35138 392.30615 959.5896 4278190080
419.18658 243.5466 936.76788 4278190080
835.32501 713.60992 738.25848 4278190080
1012.5633 267.63226 870.81104 4278190080
637.586 440.302 734.70081 4278190080
192.2504 296.55319 938.36829 4278190080
468.11313 423.04037 951.80963 4278190080
698.2309 411.53085 1004.0777 4278190080
417.72729 505.84583 367.76282 4278190080
375.99646 139.38141 339.9184 4278190080
510.53531 632.73279 732.22455 4278190080
446.12488 27.919373 975.77112 4278190080
358.89276 863.24438 665.3811 4278190080
73.15123 851.80768 933.01337 4278190080
943.96228 465.39371 349.31534 4278190080
654.66309 657.6441 645.86853 4278190080
569.03131 101.75723 44.908939 4278190080
496.84094 799.9881 456.43982 4278190080
476.91864 193.71541 962.28564 4278190080
844.68146 569.71185 77.66703 4278190080
160.59985 56.247177 710.39978 4278190080
892.8244 502.37204 738.31915 4278190080
844.59552 861.26483 577.5636 4278190080
485.97659 934.41602 405.37128 4278190080
394.98993 854.37836 870.76495 4278190080
744.3053 485.04138 504.40909 4278190080
366.17383 30.072725 606.16632 4278190080
411.08276 526.91364 382.15442 4278190080
867.52258 1003.8323 575.86981 4278190080
805.80823 824.51373 121.58171 4278190080
883.47522 985.11359 177.82889 4278190080
569.87506 853.93799 680.20093 4278190080
284.19421 674.53351 517.46576 4278190080
861.75781 136.51009 427.88181 4278190080
243.12907 531.5 258.26013 4278190080
89.894051 251.8053 743.30151 4278190080
594.3031 617.97913 773.37427 4278190080
176.46944 5.0619025 276.2879 4278190080
558.62384 872.58447 256.12021 4278190080
110.49369 654.3927 56.633934 4278190080
232.07541 513.86792 17.747517 4278190080
409.9043 59.742954 871.68549 4278190080
66.105232 343.93716 522.21893 4278190080
583.57098 181.69499 658.72906 4278190080
1011.4528 424.82407 166.22905 4278190080
245.71292 514.71814 418.03436 4278190080
989.01447 85.021248 12.013479 4278190080
738.38867 261.49069 17.075382 4278190080
1014.6766 820.11456 889.65985 4278190080
246.7968 930.60822 520.05255 4278190080
303.43073 138.68364 9.9204607 4278190080
321.17825 548.58795 69.663414 4278190080
168.86372 614.69318 413.60059 4278190080
691.0827 174.26416 595.29559 4278190080
325.81174 161.71695 1020.1196 4278190080
492.04077 407.42987 510.83777 4278190080
910.07513 372.44431 595.85901 4278190080
922.08862 86.832985 857.34967 4278190080
939.164 77.509575 653.46423 4278190080
804.82385 324.30637 560.07245 4278190080
300.8764 627.73712 698.7561 4278190080
310.79688 948.91534 223.34406 4278190080
380.4603 93.77906 838.03723 4278190080
794.06085 784.86176 1012.3014 4278190080
365.35645 86.673477 150.01833 4278190080
361.4761 578.71423 557.44818 4278190080
872.31384 464.7894 929.89246 4278190080
444.17285 362.87802 1016.7255 4278190080
277.52255 278.04199 70.235046 4278190080
930.98682 58.865868 394.54141 4278190080
467.05927 359.74228 1022.2785 4278190080
141.8154 670.53912 947.19385 4278190080
365.15945 26.99943 16.972902 4278190080
179.19667 821.0603 801.83466 4278190080
167.49805 162.41676 888.50812 4278190080
317.51639 523.89288 443.22238 4278190080
874.9646 372.20673 908.01178 4278190080
780.85706 816.37958 246.88979 4278190080
773.58252 69.902138 524.93176 4278190080
843.81757 1000.8889 583.79767 4278190080
214.35899 443.94821 943.53992 4278190080
212.6375 585.76361 590.0791 4278190080
135.83133 950.92303 617.07849 4278190080
152.80424 106.11972 414.13882 4278190080
954.63892 273.61777 576.5556 4278190080
819.14703 591.13416 76.448441 4278190080
238.36938 442.09872 448.65515 4278190080
122.38116 198.95578 241.03474 4278190080
369.27094 972.53833 310.93689 4278190080
894.2027 792.3559 287.82581 4278190080
454.00037 1006.7148 731.77405 4278190080
373.54031 195.35237 293.53763 4278190080
963.61938 331.18372 220.46068 4278190080
556.69788 483.98795 326.58041 4278190080
970.83673 414.62683 600.19818 4278190080
523.39227 209.77383 167.33234 4278190080
599.8407 448.14322 609.43109 4278190080
24.495886 570.52435 808.38684 4278190080
265.53064 939.79529 756.92517 4278190080
576.46753 809.99805 525.28107 4278190080
864.29333 239.99841 507.99591 4278190080
572.06738 613.53876 703.34827 4278190080
865.60498 553.15814 10.531984 4278190080
62.065674 85.856018 494.51993 4278190080
388.64609 32.692722 909.14673 4278190080
988.84424 556.08502 94.920586 4278190080
132.17659 131.92574 543.06378 4278190080
741.60767 156.42162 89.588188 4278190080
525.99451 421.95224 5.3834996 4278190080
258.91968 998.41974 815.38153 4278190080
784.20074 838.71307 31.379961 4278190080
268.19662 386.78046 644.9187 4278190080
971.54492 228.38544 174.07681 4278190080
982.0769 290.45111 259.93283 4278190080
452.59683 679.09717 292.62555 4278190080
337.74359 643.94147 848.71057 4278190080
432.66415 776.11804 980.63629 4278190080
975.72797 493.72571 113.05791 4278190080
41.316162 1019.7202 535.01013 4278190080
46.699661 254.63988 509.4299 4278190080
862.08118 14.840601 324.14301 4278190080
893.46118 283.03723 710.92346 4278190080
514.37988 230.58215 939.3089 4278190080
688.45667 188.65906 205.75999 4278190080
948.38953 641.25586 884.85718 4278190080
217.01506 978.99945 504.79861 4278190080
41.725613 387.66364 256.91669 4278190080
1022.3619 339.3916 750.6424 4278190080
111.41982 380.70776 746.36261 4278190080
646.42999 427.40744 1001.0025 4278190080
131.85988 265.48862 1015.8431 4278190080
456.00287 134.94978 274.88031 4278190080
142.92632 649.32965 505.46246 4278190080
58.235195 313.78632 694.12152 4278190080
263.99518 238.17581 311.37738 4278190080
124.85236 455.19089 266.37686 4278190080
629.651 496.91647 654.04047 4278190080
886.56769 495.27838 993.43207 4278190080
613.21002 606.69818 350.13986 4278190080
335.57263 229.12817 777.5473 4278190080
312.57513 360.98804 19.035908 4278190080
304.41821 816.99091 153.9857 4278190080
579.29852 959.91724 803.31537 4278190080
60.760975 1018.1525 93.101662 4278190080
754.88251 258.14761 331.27747 4278190080
42.259888 383 786.46832 4278190080
308.63675 1012.651 259.38483 4278190080
962.67725 875.21863 754.66321 4278190080
932.10931 464.42871 337.36145 4278190080
258.24918 800.00134 566.48962 4278190080
11.796441 88.576462 927.47766 4278190080
30.83235 392.99466 720.46857 4278190080
184.81805 972.29315 656.3858 4278190080
988.13342 9.0541477 650.53827 4278190080
57.235058 763.93665 908.68585 4278190080
388.51254 806.19653 267.68588 4278190080
150.9809 90.833267 256.33685 4278190080
410.36572 29.51049 107.55551 4278190080
141.02896 961.61981 571.98419 4278190080
478.39041 195.86896 347.98557 4278190080
20.880009 207.66541 436.56201 4278190080
948.35767 238.49776 829.5567 4278190080
644.82623 423.3158 777.84985 4278190080
277.21207 387.44919 786.90399 4278190080
927.75031 444.68427 526.84064 4278190080
812.43622 833.19678 309.03717 4278190080
56.122078 984.17767 399.87042 4278190080
312.45892 370.5434 429.38092 4278190080
420.01443 511.57236 367.0007 4278190080
991.99866 989.96277 562.86969 4278190080
315.98419 1010.8428 770.5351 4278190080
752.5462 935.20044 1009.0328 4278190080
558.10291 556.02667 408.34863 4278190080
311.95273 833.23877 795.79785 4278190080
74.85672 736.98907 216.48209 4278190080
601.69733 525.42529 25.678869 4278190080
910.7345 581.54736 1009.8566 4278190080
286.60495 894.00629 356.39996 4278190080
715.98584 290.02075 867.97235 4278190080
58.986568 258.01941 833.93512 4278190080
621.85626 574.0036 820.77789 4278190080
368.39133 302.54984 731.97833 4278190080
353.42416 860.65271 264.00504 4278190080
761.77277 148.60544 73.243782 4278190080
533.57062 223.46216 810.23285 4278190080
750.05267 825.15955 311.65817 4278190080
775.73157 711.89404 893.20557 4278190080
761.58813 998.49896 763.21185 4278190080
93.988068 690.4848 29.232597 4278190080
961.96039 749.47137 287.25201 4278190080
771.89551 347.32764 861.25562 4278190080
568.6734 715.71893 139.80544 4278190080
276.6517 45.143105 1000.4581 4278190080
540.65674 806.91589 125.06359 4278190080
613.90051 316.48651 348.52576 4278190080
400.13339 42.539192 149.68527 4278190080
711.79156 818.27075 861.57928 4278190080
580.99707 555.85889 836.07825 4278190080
320.20892 649.84692 502.56308 4278190080
349.44153 587.80731 228.03445 4278190080
636.69354 335.70282 575.36206 4278190080
473.94913 904.37622 267.08102 4278190080
613.75458 157.02791 312.22412 4278190080
590.21271 697.68463 95.140022 4278190080
715.27631 287.58514 411.62653 4278190080
39.802048 687.71851 454.16571 4278190080
189.48732 375.51007 248.43648 4278190080
27.06661 956.50714 804.29535 4278190080
863.14484 252.71606 430.14227 4278190080
341.70795 602.15759 1017.9496 4278190080
569.74237 214.8511 329.6524 4278190080
121.10446 688.80023 210.02861 4278190080
388.18549 278.55481 367.05652 4278190080
700.40961 868.76752 40.741154 4278190080
795.54962 560.04382 328.32629 4278190080
183.17616 599.84583 1016.0448 4278190080
637.34186 789.33319 367.55487 4278190080
885.77838 816.39978 300.06201 4278190080
666.07367 655.54462 552.77808 4278190080
72.215958 997.25256 130.93567 4278190080
66.16555 542.995 345.78677 4278190080
395.81796 664.09943 10.58701 4278190080
605.84656 28.28492 289.14182 4278190080
972.90308 728.69452 133.90932 4278190080
1013.6443 500.2442 693.95312 4278190080
317.97055 683.42035 269.79898 4278190080
310.01538 296.76224 35.132133 4278190080
677.57025 158.54059 851.53192 4278190080
977.63226 824.61426 483.07657 4278190080
506.41037 896.83026 456.32913 4278190080
637.34607 962.99579 999.3241 4278190080
983.13281 334.81375 639.42352 4278190080
993.71985 940.66034 667.70844 4278190080
258.86163 889.56342 372.40298 4278190080
392.77097 879.2077 872.64716 4278190080
62.724072 173.17825 532.0675 4278190080
332.52304 483.19363 828.82977 4278190080
367.65518 136.7639 987.37036 4278190080
195.18709 90.396179 787.98468 4278190080
678.26361 596.80658 660.81488 4278190080
110.59277 210.1526 599.81067 4278190080
85.916878 169.28543 934.62445 4278190080
725.34039 139.00526 851.28479 4278190080
369.04886 397.86691 716.84821 4278190080
741.45184 790.63788 572.05591 4278190080
590.099 853.36194 745.23419 4278190080
98.166557 161.88498 204.42783 4278190080
926.99634 529.54016 341.19171 4278190080
890.3667 724.72723 431.58789 4278190080
654.35138 378.99088 4.3944588 4278190080
291.16626 489.58365 214.54706 4278190080
890.97693 575.50055 383.83249 4278190080
801.60138 276.84091 522.83777 4278190080
628.88617 645.88977 920.70465 4278190080
321.73441 363.34161 687.34253 4278190080
893.79034 953.44067 516.70447 4278190080
615.02454 27.607206 678.58942 4278190080
819.45233 954.60352 184.12958 4278190080
136.64407 820.97021 908.85681 4278190080
568.23199 451.32159 263.84769 4278190080
572.62646 742.48785 753.43134 4278190080
787.17352 609.46478 304.93185 4278190080
147.006 387.06616 581.77277 4278190080
669.84375 1015.9523 203.66254 4278190080
566.5484 313.68674 567.00415 4278190080
229.89095 183.47707 496.44482 4278190080
746.5954 798.50159 524.052 4278190080
401.18484 593.95398 454.65555 4278190080
585.31439 730.59802 251.62579 4278190080
470.17123 274.83002 702.94739 4278190080
734.01892 847.45642 421.43521 4278190080
463.45023 610.62994 6.8999882 4278190080
768.38208 757.63593 393.96616 4278190080
326.15485 403.47968 385.91846 4278190080
529.81738 970.02808 699.60522 4278190080
72.821548 175.91904 883.08228 4278190080
569.26636 922.51447 657.58386 4278190080
69.318382 299.69928 227.53783 4278190080
523.97394 885.01367 958.13586 4278190080
775.59973 331.18491 208.96587 4278190080
454.54712 41.203827 32.422298 4278190080
875.98236 504.65405 643.05225 4278190080
882.88232 249.03613 376.68817 4278190080
252.84846 575.19098 780.16785 4278190080
638.76691 81.008362 726.19592 4278190080
314.37213 153.82993 902.11499 4278190080
173.45439 723.09625 800.62939 4278190080
831.03827 792.41467 76.328697 4278190080
34.576096 292.38861 961.34241 4278190080
992.71198 43.988327 268.52731 4278190080
177.67781 498.53543 309.73114 4278190080
210.10011 350.51776 814.38519 4278190080
853.15234 209.40009 39.421322 4278190080
205.84052 462.24857 614.6123 4278190080
986.00836 77.01548 695.62067 4278190080
688.20428 391.3876 849.45056 4278190080
566.31927 564.84198 548.54688 4278190080
342.9487 371.88028 316.96152 4278190080
419.2774 406.45636 609.3501 4278190080
356.61978 375.1683 653.33844 4278190080
625.14709 552.84613 127.87389 4278190080
934.87823 762.94623 478.39166 4278190080
725.26343 592.09857 687.79175 4278190080
764.68475 797.93909 126.0403 4278190080
355.29703 759.94745 203.05579 4278190080
26.917707 424.15173 594.44336 4278190080
876.36829 990.47101 135.2854 4278190080
400.91516 309.41974 507.16568 4278190080
717.87671 728.69714 913.62207 4278190080
303.22681 61.31691 264.79037 4278190080
956.56525 686.46399 817.63647 4278190080
60.439137 597.34222 556.5827 4278190080
538.83081 298.60565 124.6813 4278190080
202.62254 39.290386 922.62036 4278190080
328.66284 394.58743 658.56781 4278190080
531.71863 421.50513 58.719578 4278190080
102.16201 273.87341 25.190601 4278190080
237.4474 674.78857 334.61032 4278190080
744.6131 368.66525 39.307449 4278190080
634.23511 671.89209 100.62436 4278190080
899.02545 604.45734 787.08838 4278190080
692.66199 664.89648 360.4306 4278190080
225.24469 179.72725 659.03625 4278190080
349.92599 382.34979 698.3266 4278190080
248.54639 711.01263 68.914055 4278190080
907.1142 218.73126 490.41919 4278190080
965.8338 320.89328 764.2926 4278190080
991.02441 558.3407 415.08121 4278190080
301.63474 278.95377 783.74646 4278190080
340.94217 913.1889 431.63855 4278190080
441.56653 788.21436 12.09586 4278190080
204.65489 456.87634 676.99231 4278190080
565.08551 682.12103 856.7196 4278190080
200.12173 8.0470219 215.06938 4278190080
898.44836 256.59341 926.08203 4278190080
967.36243 139.70763 120.81328 4278190080
433.78159 81.541412 441.70654 4278190080
174.0742 48.565811 1000.0472 4278190080
589.1554 350.20053 255.00098 4278190080
348.90186 691.1427 144.18987 4278190080
780.54041 108.70924 932.40424 4278190080
792.63623 313.36414 365.28055 4278190080
445.62857 878.44965 23.401577 4278190080
278.34814 54.571365 31.448599 4278190080
493.41754 953.01971 288.04199 4278190080
395.49954 896.38214 427.74963 4278190080
516.31281 306.16373 509.29105 4278190080
958.01935 480.23795 557.85687 4278190080
934.06659 45.393337 908.05737 4278190080
165.06758 394.2952 575.20007 4278190080
309.25745 150.8356 683.90936 4278190080
217.66167 943.47186 997.2735 4278190080
582.9422 365.10043 851.72308 4278190080
606.34381 643.44861 906.29449 4278190080
637.79242 112.86613 835.31421 4278190080
925.83441 508.36569 707.69635 4278190080
329.58401 0.67850351 1013.86 4278190080
838.87506 958.69788 470.09799 4278190080
372.73193 868.76447 515.49133 4278190080
256.78931 9.8320456 909.78656 4278190080
831.98938 319.08948 36.622135 4278190080
491.89874 536.75116 980.09399 4278190080
465.17221 95.693359 321.19443 4278190080
292.89532 702.03717 964.64307 4278190080
175.18982 315.82953 53.509171 4278190080
1010.504 217.66394 561.87488 4278190080
694.20032 547.24799 562.55334 4278190080
684.06042 362.12305 497.25122 4278190080
130.1584 734.85498 342.01569 4278190080
645.64972 991.64429 351.84775 4278190080
531.43628 799.63367 670.93719 4278190080
568.05841 267.53241 183.68837 4278190080
524.1524 732.70465 279.38174 4278190080
845.3468 1.5999799 981.41888 4278190080
785.98987 176.78979 273.24841 4278190080
839.49902 163.29381 490.91235 4278190080
377.3739 857.49414 14.160329 4278190080
939.92725 517.55457 376.28336 4278190080
413.17847 647.71295 87.138313 4278190080
755.19415 269.36267 54.782581 4278190080
83.041901 800.79895 854.41626 4278190080
753.97913 344.85733 97.948677 4278190080
937.66748 869.00977 830.65332 4278190080
193.04922 690.35657 832.2533 4278190080
150.46811 452.34644 1009.0431 4278190080
423.71655 267.84549 148.3369 4278190080
914.62891 645.21936 1005.8311 4278190080
928.78925 561.14661 499.38562 4278190080
281.0726 974.32507 123.09856 4278190080
368.21091 705.51923 392.46124 4278190080
422.9935 788.56116 169.26019 4278190080
253.40974 518.54028 514.11755 4278190080
351.35843 432.20776 359.12726 4278190080
158.01173 625.25696 25.483843 4278190080
990.26501 775.7251 477.83029 4278190080
975.30811 175.44164 745.67578 4278190080
99.645027 66.070541 366.89514 4278190080
81.476074 994.8598 928.04175 4278190080
580.86169 251.93237 878.36682 4278190080
703.96027 620.14325 559.88605 4278190080
72.421486 19.136772 324.44717 4278190080
241.68167 272.54651 842.98743 4278190080
755.79919 623.90497 251.19519 4278190080
90.926483 781.91669 876.45221 4278190080
116.41032 748.1817 628.17731 4278190080
594.2406 699.48987 803.6189 4278190080
315.91638 799.13489 869.68945 4278190080
682.81152 880.61096 840.54926 4278190080
586.85321 437.47266 68.481606 4278190080
441.22003 117.43288 688.62488 4278190080
1001.1061 189.85437 707.76166 4278190080
301.55325 431.53604 980.30817 4278190080
120.5407 163.33525 580.21313 4278190080
371.7359 254.26173 338.12982 4278190080
224.18808 370.67206 62.311535 4278190080
852.36536 964.91266 761.80139 4278190080
631.98425 256.82904 536.93628 4278190080
477.67374 939.6405 393.54721 4278190080
294.22299 502.49377 831.01984 4278190080
362.70459 943.71381 948.45276 4278190080
27.329472 920.81989 114.30713 4278190080
735.09113 198.37314 545.8432 4278190080
691.39929 318.91382 709.17841 4278190080
247.61244 690.64972 963.44019 4278190080
585.74225 914.83777 310.11224 4278190080
648.05377 743.20312 251.0249 4278190080
385.85516 351.18744 507.85394 4278190080
922.79144 828.86115 423.49448 4278190080
292.33865 99.084152 925.98822 4278190080
99.358536 461.78873 845.70203 4278190080
23.811287 489.11819 742.52191 4278190080
138.11841 200.20934 940.89502 4278190080
683.96161 891.60864 235.80887 4278190080
369.14001 115.22108 926.45862 4278190080
308.5802 700.96332 817.29639 4278190080
618.69244 325.01712 536.49957 4278190080
869.71735 710.87231 887.68695 4278190080
353.57126 609.66376 692.54816 4278190080
777.06573 902.00244 791.63232 4278190080
679.05396 1001.361 229.42104 4278190080
500.75595 1.172235 718.53925 4278190080
219.27788 139.29065 918.7486 4278190080
136.17291 823.25226 786.35724 4278190080
371.98178 168.39226 901.57831 4278190080
274.4404 476.97244 578.54163 4278190080
67.736778 71.664879 903.55878 4278190080
604.23633 941.3822 590.43109 4278190080
467.92331 270.95346 176.09483 4278190080
136.47144 24.019159 54.097248 4278190080
928.10376 703.07312 31.458197 4278190080
133.52477 179.82906 32.630432 4278190080
852.06403 399.10693 171.92108 4278190080
746.81256 535.27985 995.17334 4278190080
509.1698 907.26166 139.56558 4278190080
386.74811 157.70203 616.53802 4278190080
965.28979 225.4388 688.20294 4278190080
844.84857 829.67511 605.58514 4278190080
411.27963 273.59842 876.53857 4278190080
587.37445 410.06985 900.55774 4278190080
641.47174 314.17358 579.6308 4278190080
672.92993 447.69836 759.4599 4278190080
705.56036 275.76239 134.56682 4278190080
877.48145 1022.575 669.84668 4278190080
848.65479 507.74475 553.10828 4278190080
988.22034 894.49286 710.8103 4278190080
580.75836 835.78265 936.24915 4278190080
244.9613 656.63123 741.92426 4278190080
850.54645 43.910858 1015.5226 4278190080
703.08502 631.28534 401.5925 4278190080
579.6427 248.75706 715.76611 4278190080
135.27354 921.68701 139.46448 4278190080
894.7334 603.24731 415.22687 4278190080
5.3002415 456.72876 413.80182 4278190080
675.14691 281.38354 921.54657 4278190080
204.2552 245.60388 792.03949 4278190080
915.06549 826.36224 603.82214 4278190080
827.31464 47.323578 236.45334 4278190080
545.23889 897.87 280.3642 4278190080
536.76154 576.95502 911.64954 4278190080
938.35406 132.59772 136.40659 4278190080
630.12018 267.87128 34.093567 4278190080
769.58466 138.60469 637.34088 4278190080
160.81148 143.90494 70.069679 4278190080
574.61328 819.05182 351.45322 4278190080
472.15988 1023.307 597.05707 4278190080
240.19934 914.37256 399.41937 4278190080
844.02148 717.68719 446.74295 4278190080
56.474792 238.92606 320.61295 4278190080
336.83899 775.68756 897.56793 4278190080
224.48851 690.04163 6.165668 4278190080
360.89508 296.16177 274.03693 4278190080
394.98865 41.746407 412.64163 4278190080
8.3295631 202.55789 556.54657 4278190080
78.399239 777.1712 351.59839 4278190080
429.85245 225.33105 350.90543 4278190080
2.9095488 465.5304 241.27797 4278190080
402.32892 285.55185 958.96515 4278190080
849.07184 342.02664 173.89122 4278190080
145.6848 678.86566 949.5788 4278190080
19.252743 903.35413 615.62042 4278190080
25.418411 240.24924 911.78223 4278190080
299.45535 635.23792 953.52863 4278190080
712.09698 643.56744 132.08649 4278190080
244.64351 721.96674 909.25769 4278190080
596.24188 127.81916 110.58874 4278190080
947.14734 130.72871 576.11914 4278190080
164.42528 533.05762 861.67102 4278190080
99.390442 358.12949 179.69765 4278190080
273.28165 503.81427 858.56329 4278190080
198.86046 523.06702 737.91742 4278190080
814.4809 548.48541 978.16669 4278190080
702.26306 847.94073 589.4046 4278190080
631.79169 536.03772 208.97205 4278190080
763.87817 780.68121 930.93878 4278190080
649.13586 352.92313 34.757919 4278190080
759.72461 276.07043 165.48663 4278190080
311.84372 440.49573 698.54425 4278190080
149.51474 539.88617 32.673729 4278190080
329.21237 813.16785 536.48798 4278190080
163.77567 1012.0283 35.555008 4278190080
901.69312 802.50916 584.04041 4278190080
855.8598 480.77225 407.9812 4278190080
421.26437 88.563934 944.01892 4278190080
630.23645 852.44214 700.70013 4278190080
537.17517 477.57797 29.623297 4278190080
571.93311 213.30255 305.69376 4278190080
737.41974 525.1463 746.18945 4278190080
411.96399 674.66101 262.07565 4278190080
444.63773 1003.8734 51.243488 4278190080
981.12573 143.64908 39.271782 4278190080
1016.6807 21.342186 841.78094 4278190080
576.72113 877.20197 298.55322 4278190080
984.70233 274.46634 387.11716 4278190080
904.72125 904.70276 215.55925 4278190080
581.42145 417.87796 693.13721 4278190080
611.04474 989.81104 906.43976 4278190080
916.73846 703.23077 407.58606 4278190080
638.92798 91.194771 58.247078 4278190080
901.0036 535.83246 38.120483 4278190080
952.24713 492.95819 181.76956 4278190080
991.51886 485.63892 203.11174 4278190080
809.29987 38.360085 56.313725 4278190080
83.85305 1023.0624 330.78006 4278190080
470.97018 903.78369 211.48285 4278190080
686.52948 461.20517 629.36078 4278190080
355.66666 48.249893 595.17181 4278190080
238.10643 964.9884 274.40262 4278190080
645.6925 579.91632 365.59738 4278190080
703.93958 456.91995 901.42987 4278190080
742.06006 385.16705 370.38806 4278190080
923.82959 352.68594 856.02698 4278190080
102.94136 137.98579 894.38708 4278190080
159.25508 221.83885 893.44952 4278190080
490.03516 692.80902 773.23322 4278190080
701.51801 355.3385 210.4384 4278190080
306.87878 711.00519 258.68829 4278190080
902.0506 949.11157 199.67667 4278190080
152.45323 570.80408 779.59302 4278190080
518.0506 250.74365 212.51295 4278190080
395.4805 992.80371 597.67999 4278190080
765.86859 892.6333 950.36597 4278190080
597.89557 995.57465 64.351761 4278190080
468.28265 130.82976 286.19061 4278190080
337.73218 620.86493 978.99963 4278190080
86.965416 298.3829 310.33813 4278190080
297.40381 605.26172 1021.3433 4278190080
556.0921 483.31232 946.4549 4278190080
755.76874 635.76556 493.25897 4278190080
511.36176 129.81618 744.00262 4278190080
723.87469 525.29669 712.80634 4278190080
297.55475 267.16522 581.43964 4278190080
223.92072 865.06079 553.01434 4278190080
288.27246 309.34344 683.84406 4278190080
574.46307 647.07562 280.70898 4278190080
529.46271 734.04102 579.09192 4278190080
839.8009 7.4448438 160.35359 4278190080
837.14417 563.53693 643.66589 4278190080
759.59906 295.30569 255.43147 4278190080
228.85806 806.66748 385.24765 4278190080
972.86072 506.54218 910.54431 4278190080
661.66705 804.09692 153.70955 4278190080
219.10666 4.0176263 1018.7703 4278190080
772.12097 292.2901 304.1138 4278190080
431.96506 866.75317 951.18945 4278190080
712.67401 372.21591 661.23047 4278190080
267.76593 188.0168 668.67529 4278190080
428.11954 1.1609869 208.21225 4278190080
47.785431 760.76007 503.51794 4278190080
303.21689 989.61816 286.18539 4278190080
688.46454 938.47882 792.7276 4278190080
575.00885 576.14587 572.82452 4278190080
728.71844 795.2525 576.8421 4278190080
723.48877 543.37347 869.1322 4278190080
3.6025729 975.33856 711.88544 4278190080
954.79199 664.01257 60.101326 4278190080
592.02246 931.77856 248.11812 4278190080
236.69775 335.89807 249.27911 4278190080
444.91 383.6835 1010.0392 4278190080
948.42792 686.90039 975.65735 4278190080
210.61336 351.36493 890.13617 4278190080
1003.3409 926.37378 442.28201 4278190080
552.16547 631.09222 213.53452 4278190080
105.00757 330.58099 756.90802 4278190080
974.13977 334.18356 708.24658 4278190080
662.02521 264.97556 348.25919 4278190080
722.12653 856.99799 256.03772 4278190080
970.24463 69.69577 591.93579 4278190080
195.52377 514.60577 975.61926 4278190080
181.56296 439.03372 638.51965 4278190080
133.22028 649.64709 989.88458 4278190080
1023.3564 628.98804 892.25836 4278190080
441.63843 157.15346 499.35062 4278190080
655.17297 262.16104 829.93158 4278190080
388.08096 212.30083 140.11516 4278190080
72.327553 874.32605 405.0907 4278190080
420.58673 572.45258 238.08871 4278190080
676.62445 518.6972 307.78448 4278190080
244.56023 714.22101 822.39026 4278190080
196.17949 895.78394 237.424 4278190080
834.69916 5.0042315 887.07104 4278190080
800.58374 4.3606544 492.05908 4278190080
668.8421 445.99908 649.21252 4278190080
144.19273 77.172028 911.3736 4278190080
974.12433 465.25299 99.6744 4278190080
90.239471 537.58057 974.00043 4278190080
495.33017 958.1673 522.453 4278190080
733.41888 610.79175 17.150249 4278190080
17.203396 855.35193 731.37128 4278190080
839.59369 27.53145 603.15521 4278190080
53.017662 862.23059 608.15942 4278190080
940.08875 638.81433 612.52008 4278190080
408.14783 283.65646 34.519176 4278190080
33.360367 427.84918 111.6912 4278190080
944.73395 377.97351 576.94421 4278190080
20.408344 468.21298 90.524742 4278190080
994.40881 963.54315 24.692024 4278190080
492.86182 672.96204 635.48376 4278190080
510.01205 690.16547 466.83572 4278190080
217.3833 505.75912 494.36716 4278190080
820.53851 558.77679 332.59778 4278190080
404.69797 474.86554 971.41211 4278190080
1017.2181 883.01337 231.06856 4278190080
27.737232 916.37372 658.91772 4278190080
139.42844 837.10767 12.891264 4278190080
716.37262 857.51599 481.10425 4278190080
806.8974 827.9248 420.6474 4278190080
831.58942 296.78659 69.609474 4278190080
443.07315 806.79865 759.77496 4278190080
909.90887 0.18194485 241.53407 4278190080
380.27603 820.72046 800.31085 4278190080
712.87378 201.41843 251.17638 4278190080
660.28589 194.63647 110.18973 4278190080
891.35449 222.3737 2.5634465 4278190080
526.27222 361.80215 839.67108 4278190080
539.16351 54.174774 673.18713 4278190080
1020.2678 861.07214 477.11188 4278190080
416.91513 668.66156 773.8985 4278190080
486.52463 87.734703 556.69714 4278190080
222.29956 997.64355 556.87909 4278190080
463.83362 353.91962 353.59952 4278190080
240.14449 42.793423 555.01794 4278190080
491.32086 703.07935 749.65442 4278190080
601.51062 570.43378 972.02814 4278190080
604.07404 72.706024 309.83026 4278190080
419.74515 611.86951 364.00504 4278190080
68.932251 608.13727 201.07719 4278190080
546.04413 1.0523882 869.73871 4278190080
295.94263 487.577 957.47345 4278190080
852.63977 709.87659 931.117 4278190080
385.51883 149.71019 261.03662 4278190080
739.11835 389.85468 303.83005 4278190080
270.13629 881.17554 1006.9094 4278190080
1019.7907 458.68613 553.3432 4278190080
967.81885 38.760178 626.04919 4278190080
253.64911 458.50531 213.9187 4278190080
617.65417 527.43756 822.05597 4278190080
818.73132 49.481712 823.10834 4278190080
664.47009 345.42435 286.68533 4278190080
597.94354 174.06409 996.56189 4278190080
505.06052 559.58289 122.27211 4278190080
766.09717 274.70123 512.12677 4278190080
45.927193 544.83752 369.30234 4278190080
28.836565 540.62823 827.98846 4278190080
582.17975 484.44708 866.74866 4278190080
184.22894 738.09619 301.25397 4278190080
398.14764 331.75034 828.69153 4278190080
196.20358 126.48169 878.17322 4278190080
1019.312 790.95178 199.59758 4278190080
281.99725 364.89529 373.66165 4278190080
254.55919 869.95581 933.24457 4278190080
376.8313 612.05298 183.94582 4278190080
888.95807 657.98016 728.78333 4278190080
234.26041 686.81671 245.41159 4278190080
38.248867 244.99644 729.85864 4278190080
904.9975 429.22537 443.95486 4278190080
182.25146 827.37305 775.7052 4278190080
1010.943 1023.5766 902.18689 4278190080
865.11621 1018.8885 669.13867 4278190080
40.71381 276.8858 10.033962 4278190080
414.37549 531.44501 879.98975 4278190080
323.62006 908.27631 468.04272 4278190080
507.56586 773.23438 102.02287 4278190080
212.3492 1007.4948 788.8396 4278190080
457.76077 21.743633 9.8360252 4278190080
163.61945 926.74115 439.0614 4278190080
607.57434 84.992592 242.43443 4278190080
359.27951 71.935585 242.01105 4278190080
237.46643 937.05182 236.8996 4278190080
906.6051 977.76562 513.7854 4278190080
916.6391 368.14111 21.230389 4278190080
772.62885 691.76117 929.50665 4278190080
216.67157 175.327 678.74103 4278190080
318.69443 387.67618 662.23578 4278190080
83.534004 845.43695 683.97943 4278190080
93.370033 1009.0564 586.72058 4278190080
532.43146 592.63074 671.71313 4278190080
774.86591 951.91028 743.64874 4278190080
1016.877 165.37668 656.70056 4278190080
229.77652 47.981792 610.46619 4278190080
743.56189 964.62085 978.6073 4278190080
764.7923 713.24969 646.36841 4278190080
670.29895 929.92126 821.69543 4278190080
325.04001 224.61571 185.37161 4278190080
987.27582 308.14972 6.8085756 4278190080
647.25525 401.51974 1015.865 4278190080
209.97581 933.95117 584.49573 4278190080
881.68896 684.81708 512.40601 4278190080
601.33771 677.69397 677.78265 4278190080
234.03828 907.47052 725.76447 4278190080
844.50446 627.03241 666.38531 4278190080
799.11176 367.82474 355.63504 4278190080
421.48016 14.12372 261.5563 4278190080
219.1756 339.16373 486.172 4278190080
404.54721 302.43954 794.32172 4278190080
411.35577 949.69482 171.84145 4278190080
403.22076 135.67061 81.792618 4278190080
987.71649 1017.3596 766.60968 4278190080
476.12247 594.69733 420.30368 4278190080
129.90514 828.7356 303.77417 4278190080
855.66962 649.24005 930.80664 4278190080
498.05493 424.35184 274.63135 4278190080
853.68994 845.83203 288.75507 4278190080
91.246246 41.00761 627.91882 4278190080
577.41827 445.55481 930.35834 4278190080
347.73996 856.91058 856.05316 4278190080
519.58142 236.13138 991.72375 4278190080
601.37402 199.84787 985.08337 4278190080
343.9837 675.97034 555.7807 4278190080
764.28735 805.87549 360.5163 4278190080
44.061543 637.5451 1009.7563 4278190080
974.86816 111.6 410.10822 4278190080
225.49951 965.28992 231.94022 4278190080
514.25458 32.53619 272.94781 4278190080
118.17339 609.95441 718.50262 4278190080
24.531742 957.6944 551.41327 4278190080
880.5849 453.27579 787.54462 4278190080
848.30865 30.649799 987.39252 4278190080
809.39203 374.63348 639.36285 4278190080
341.1727 114.92086 421.23831 4278190080
701.68896 158.98241 34.783398 4278190080
687.44531 109.85056 146.38339 4278190080
73.553535 335.35007 87.67334 4278190080
305.49374 849.60468 120.20953 4278190080
578.44159 967.77802 730.16394 4278190080
272.94421 992.30975 663.85834 4278190080
824.35748 848.89465 93.13414 4278190080
587.9021 673.20331 123.78394 4278190080
551.29456 458.59534 498.41742 4278190080
166.65739 799.76801 613.33832 4278190080
587.89569 477.457 772.32068 4278190080
622.67914 140.90233 882.17126 4278190080
769.0625 214.45587 193.52132 4278190080
856.73584 519.94965 19.125971 4278190080
976.94537 74.391205 986.90399 4278190080
683.10931 347.33542 955.21381 4278190080
322.96768 147.69289 780.10846 4278190080
416.10184 735.59497 429.3118 4278190080
539.88574 262.88953 887.90717 4278190080
14.303195 429.54694 663.67517 4278190080
627.64148 1017.4426 117.13216 4278190080
375.96219 616.12177 258.03448 4278190080
234.13344 361.18427 472.49036 4278190080
427.65475 193.92012 992.44 4278190080
446.78073 146.86549 42.8312 4278190080
409.68472 829.97485 390.16663 4278190080
340.89853 128.94252 537.8595 4278190080
97.006996 545.04437 249.4545 4278190080
526.31879 60.930107 512.34406 4278190080
390.22592 75.233299 941.89099 4278190080
29.901098 702.87482 935.33362 4278190080
147.03326 54.836967 527.45538 4278190080
405.06775 288.9704 888.63965 4278190080
877.55811 716.62512 58.559799 4278190080
845.99811 139.40588 205.42529 4278190080
888.82935 549.09064 11.40012 4278190080
254.99596 889.98914 140.34264 4278190080
792.85547 986.99615 685.38696 4278190080
18.309965 489.31494 746.31708 4278190080
530.65399 879.54089 821.55042 4278190080
448.54498 909.44196 500.42517 4278190080
359.8786 32.475231 555.26215 4278190080
887.33398 437.543 844.23254 4278190080
751.97369 291.1011 536.85767 4278190080
810.53345 113.09924 676.26355 4278190080
1015.9587 1001.9285 201.35419 4278190080
3.3588824 232.9245 67.343323 4278190080
143.70152 1.7799797 30.339466 4278190080
829.0885 20.089945 519.65442 4278190080
551.40558 550.74396 375.19528 4278190080
348.95596 999.28894 260.63727 4278190080
849.38116 335.16751 293.11249 4278190080
380.64328 198.5015 730.65546 4278190080
200.87584 950.47516 1021.7566 4278190080
737.73352 737.00867 110.85582 4278190080
389.9971 728.96741 88.78437 4278190080
591.35126 732.32629 321.70889 4278190080
658.69458 876.02783 323.48886 4278190080
689.03406 681.11633 343.5788 4278190080
184.68848 208.5219 894.32275 4278190080
559.88373 557.47791 869.61163 4278190080
820.521 382.85904 180.77916 4278190080
89.633492 763.50232 379.28067 4278190080
820.28894 964.37817 305.75583 4278190080
818.04553 678.11169 18.764484 4278190080
928.90137 44.108784 747.73187 4278190080
1017.6857 635.46008 456.0582 4278190080
315.39462 270.15466 308.086 4278190080
638.88348 959.18872 989.20233 4278190080
982.46228 119.87721 173.72421 4278190080
852.78503 679.76099 731.20209 4278190080
698.39667 476.28198 90.061111 4278190080
879.17584 565.91547 853.56342 4278190080
234.4565 362.20444 793.94159 4278190080
540.21234 156.24998 448.05328 4278190080
558.97681 61.151356 492.16205 4278190080
282.70871 54.837093 103.62212 4278190080
738.76691 370.23172 373.77679 4278190080
22.852898 1009.1152 308.96555 4278190080
1012.0552 967.57745 428.84274 4278190080
161.77942 796.36249 84.603722 4278190080
892.98151 470.75916 560.88568 4278190080
983.0426 325.935 102.80118 4278190080
812.60608 560.39148 465.00562 4278190080
582.54767 76.603828 621.25562 4278190080
6.6009254 635.58063 682.40698 4278190080
498.763 918.28937 737.24408 4278190080
602.38513 633.05627 83.475761 4278190080
976.16193 655.90918 68.590942 4278190080
261.12744 643.96436 12.168402 4278190080
689.97021 805.74377 808.53088 4278190080
774.57391 674.72528 255.29002 4278190080
311.45959 633.76794 581.22504 4278190080
414.26077 422.37399 117.61651 4278190080
879.26642 1004.9216 194.22034 4278190080
476.522 1011.5226 829.80103 4278190080
134.92897 486.28555 724.09039 4278190080
872.17303 64.670647 333.14667 4278190080
955.6488 16.832552 989.05585 4278190080
0.23973846 277.95999 609.0202 4278190080
12.40814 967.93018 390.76401 4278190080
820.93903 718.50409 41.489323 4278190080
52.22905 5.963685 675.25726 4278190080
633.45404 420.22446 73.631226 4278190080
751.07056 275.49088 54.552853 4278190080
945.29089 752.01288 42.075405 4278190080
751.09192 886.94183 528.36096 4278190080
451.18228 735.11487 593.03162 4278190080
784.32892 666.76367 609.86414 4278190080
749.38477 667.00342 887.82416 4278190080
334.405 679.41156 831.75433 4278190080
725.16901 476.35056 526.25836 4278190080
766.65833 528.57959 532.22205 4278190080
417.91559 138.03369 952.44653 4278190080
491.54681 889.10425 203.93741 4278190080
546.09967 810.3952 955.95026 4278190080
588.17505 537.48712 818.89215 4278190080
92.536011 988.66937 530.00702 4278190080
685.56763 748.99835 172.77068 4278190080
271.43176 474.38312 839.77405 4278190080
135.25589 808.78809 495.18561 4278190080
967.01019 509.95712 971.53619 4278190080
469.26859 252.61545 476.11581 4278190080
1001.4907 670.53107 614.14948 4278190080
929.93719 138.07785 479.25375 4278190080
109.87459 684.17749 265.64896 4278190080
41.824871 248.35257 803.13605 4278190080
860.71698 340.88858 767.80542 4278190080
366.724 2.4561911 492.80377 4278190080
539.49469 273.88794 967.18689 4278190080
355.26874 409.14383 751.97498 4278190080
850.45435 352.15402 237.9321 4278190080
797.99054 821.42261 490.54755 4278190080
250.10635 798.91321 137.0786 4278190080
864.25586 704.8504 275.15643 4278190080
319.50961 814.72504 959.33398 4278190080
585.15857 856.54987 183.68652 4278190080
364.29459 693.26691 524.57513 4278190080
108.10003 35.990883 527.03131 4278190080
600.90381 575.48553 800.91925 4278190080
544.0907 930.75427 186.06308 4278190080
272.06567 757.20868 538.2171 4278190080
509.99777 531.19922 335.63968 4278190080
1000.5453 781.30554 110.55292 4278190080
113.62394 621.5614 815.40332 4278190080
388.7804 941.07104 606.12836 4278190080
324.11435 502.22958 438.67822 4278190080
507.80087 866.52417 107.94511 4278190080
8.3759851 974.62421 143.936 4278190080
535.40729 551.52802 719.42157 4278190080
312.32654 71.618698 626.17584 4278190080
498.38962 343.68439 359.38449 4278190080
12.606705 853.68213 890.58368 4278190080
348.24637 830.22748 647.88928 4278190080
458.79929 943.85144 245.4507 4278190080
250.20264 308.63181 162.52173 4278190080
856.33099 632.74615 664.75128 4278190080
271.00922 116.54701 507.27548 4278190080
378.95435 124.923 457.89972 4278190080
522.89032 660.33032 1009.4277 4278190080
218.31187 972.65686 57.046417 4278190080
844.48773 447.04645 400.7308 4278190080
179.87221 459.65317 230.41295 4278190080
46.45591 807.89954 36.640438 4278190080
694.34515 242.69884 980.49188 4278190080
939.7959 492.90146 265.12369 4278190080
78.317604 325.23245 897.86981 4278190080
743.06891 596.2417 1014.4168 4278190080
226.34441 975.19598 115.33984 4278190080
684.24408 474.08633 775.6701 4278190080
669.67181 692.39819 724.32697 4278190080
726.71826 512.88593 147.37343 4278190080
103.44904 692.75812 607.02661 4278190080
333.862 739.21405 390.92615 4278190080
370.50241 409.5592 633.625 4278190080
326.99429 325.3551 102.52645 4278190080
592.11798 403.6727 427.75891 4278190080
465.98779 122.74161 0.00057697296 4278190080
456.40463 349.086 975.19659 4278190080
571.74445 9.330121 425.28293 4278190080
323.41458 679.00195 93.681122 4278190080
23.741566 381.72018 606.56702 4278190080
171.11499 485.16922 275.32516 4278190080
778.1416 819.03125 1014.5392 4278190080
145.06772 165.53365 400.09842 4278190080
778.69269 492.52792 725.45355 4278190080
881.21918 60.645897 105.12622 4278190080
284.97806 526.63367 227.86783 4278190080
284.97864 983.03833 576.95386 4278190080
236.17522 530.78278 586.28394 4278190080
661.45813 854.19739 241.2859 4278190080
755.13928 877.93896 623.0061 4278190080
337.7063 25.05393 84.175339 4278190080
613.03149 803.1955 903.20654 4278190080
603.57068 948.26324 44.7402 4278190080
1003.6691 702.95593 537.26813 4278190080
705.12262 560.17511 597.914 4278190080
810.24884 845.15314 100.54771 4278190080
14.116686 106.1318 59.586025 4278190080
591.0705 342.30701 590.36877 4278190080
153.35448 1003.7651 420.56616 4278190080
394.64038 734.90442 274.5051 4278190080
1017.6465 48.610703 299.55905 4278190080
77.821838 661.64215 78.754555 4278190080
981.02838 241.21288 3.0177941 4278190080
1.7685957 220.88199 705.97375 4278190080
539.03674 926.00464 242.14883 4278190080
112.95075 712.25348 63.301991 4278190080
213.49847 726.37018 169.43379 4278190080
273.0845 293.4407 511.74078 4278190080
863.45331 446.7952 491.50595 4278190080
260.01947 841.43561 202.41034 4278190080
534.5246 835.08209 251.02104 4278190080
834.08362 912.90393 912.66321 4278190080
912.83813 869.93231 129.8761 4278190080
915.85596 871.70093 350.75809 4278190080
597.82971 386.73764 252.76273 4278190080
839.97852 499.68839 965.01624 4278190080
903.28052 713.18683 667.38641 4278190080
48.714298 986.27136 960.82709 4278190080
560.45508 825.72467 383.62228 4278190080
27.96104 61.744106 201.05788 4278190080
230.37138 596.26868 12.13995 4278190080
481.39243 406.35226 925.04388 4278190080
370.05566 295.19043 770.9762 4278190080
499.93176 187.04639 618.67706 4278190080
850.68982 784.8761 1005.4147 4278190080
79.45256 600.85461 481.10309 4278190080
20.468779 480.13513 170.28996 4278190080
687.85516 528.84943 132.56131 4278190080
624.68225 65.304512 958.28595 4278190080
1008.3046 93.265556 1020.03 4278190080
185.36243 323.63693 592.29871 4278190080
197.50238 805.02936 998.651 4278190080
98.546249 151.08502 269.84143 4278190080
869.5224 651.01678 456.88782 4278190080
464.19949 477.70663 217.76392 4278190080
445.6142 557.15918 818.61853 4278190080
926.71729 577.62799 274.75363 4278190080
73.007271 241.48314 803.60303 4278190080
205.56857 866.16541 868.90753 4278190080
139.85452 850.46997 962.1731 4278190080
135.88458 11.832411 261.81006 4278190080
728.18329 209.33479 42.839417 4278190080
702.83435 307.88104 193.92444 4278190080
972.67578 153.40347 844.94122 4278190080
405.5636 617.60297 298.64783 4278190080
623.32751 39.217178 855.80701 4278190080
417.94601 965.93451 409.435 4278190080
692.69965 14.941761 650.91815 4278190080
472.3027 220.51035 493.08353 4278190080
317.21027 360.36487 319.55353 4278190080
255.38338 496.24945 331.38593 4278190080
517.19342 200.43277 540.7207 4278190080
560.03284 903.26709 848.60175 4278190080
753.95728 851.94287 1002.0052 4278190080
574.8985 233.50644 595.60822 4278190080
873.54633 856.83392 634.82538 4278190080
705.35333 250.77997 576.75989 4278190080
90.788345 943.47961 591.7016 4278190080
741.70648 391.78232 812.21198 4278190080
210.79001 708.99255 148.57683 4278190080
530.34351 964.37598 644.82629 4278190080
861.72943 457.56937 845.25903 4278190080
378.45016 1017.6022 724.52612 4278190080
203.05193 747.55951 552.46899 4278190080
181.05716 298.45801 785.9754 4278190080
776.66534 148.00433 618.80939 4278190080
387.49072 853.35767 869.58936 4278190080
964.25061 944.14606 789.06897 4278190080
531.95221 661.85254 156.8513 4278190080
320.16418 872.64252 865.84387 4278190080
468.74103 378.98605 806.21985 4278190080
89.567299 216.7155 239.78922 4278190080
934.82635 595.16565 233.39143 4278190080
635.35248 798.21759 980.95093 4278190080
163.82147 979.27478 255.40894 4278190080
949.79694 731.94012 403.41327 4278190080
544.60632 95.430847 232.77097 4278190080
390.19565 35.681438 152.91701 4278190080
155.26463 567.63367 814.76953 4278190080
312.11594 887.79785 663.41205 4278190080
153.95982 332.53885 18.398106 4278190080
960.17969 422.10614 235.1136 4278190080
175.96889 332.9325 830.2793 4278190080
409.36032 968.28497 604.49689 4278190080
366.31125 108.10647 559.77167 4278190080
621.72021 33.903381 267.71176 4278190080
1.1334648 578.50964 363.14261 4278190080
233.90443 968.70532 398.82404 4278190080
386.82144 99.969955 966.4577 4278190080
177.59096 412.08588 830.25555 4278190080
841.00299 566.04572 138.79439 4278190080
859.40112 502.22537 560.90057 4278190080
70.514725 678.19427 893.83307 4278190080
900.79401 63.554573 838.11804 4278190080
481.29089 429.86584 946.22449 4278190080
17.062523 27.586027 980.12787 4278190080
284.77429 28.719492 534.63757 4278190080
647.91687 262.62393 479.3429 4278190080
22.740932 649.44537 579.31287 4278190080
989.19861 827.03632 991.39874 4278190080
795.45416 644.03937 533.44446 4278190080
934.2486 479.44046 11.669813 4278190080
471.14911 549.9552 689.86407 4278190080
340.98218 426.74918 753.41864 4278190080
155.1002 908.04004 159.28447 4278190080
77.324722 925.1026 186.8705 4278190080
33.45261 185.87688 215.59 4278190080
568.09015 833.79376 478.21393 4278190080
23.433062 856.53467 103.65928 4278190080
602.74591 821.73334 930.69562 4278190080
570.14465 593.1875 550.73492 4278190080
79.589081 503.4361 6.175395 4278190080
91.258888 974.58521 556.13055 4278190080
781.12299 291.56738 982.87976 4278190080
510.5416 446.66757 866.91986 4278190080
669.82605 523.99231 768.0224 4278190080
856.69659 557.44489 953.89929 4278190080
48.28656 101.53508 763.69305 4278190080
526.50049 124.96815 596.22772 4278190080
630.15973 727.71405 393.96109 4278190080
536.85535 273.85867 987.14856 4278190080
63.59029 353.44775 466.58466 4278190080
69.765686 444.70667 417.16986 4278190080
625.89624 201.82962 708.73724 4278190080
584.776 712.37122 131.40482 4278190080
427.69586 358.19727 655.39709 4278190080
171.71828 190.89384 188.84203 4278190080
101.61758 239.1804 290.37711 4278190080
865.31061 765.68091 415.34525 4278190080
437.53839 371.84064 119.05931 4278190080
