# .PCD v0.7 - Point Cloud Data file format
VERSION 0.7
FIELDS x y z rgb
SIZE 4 4 4 4
TYPE F F F U
COUNT 1 1 1 1
WIDTH 1175
HEIGHT 1
VIEWPOINT 0 0 0 1 0 0 0
POINTS 1175
DATA ascii
427.62402 463.28677 552.95074 4278190080
319.89847 846.92175 666.47546 4278190080
491.8989 64.970566 493.24744 4278190080
157.29471 805.25336 672.34784 4278190080
764.09283 170.90157 1020.4612 4278190080
266.10767 1016.666 161.85301 4278190080
1016.3496 316.05167 270.23175 4278190080
545.15747 487.56638 81.056969 4278190080
568.62115 26.07202 950.43115 4278190080
19.805605 346.84891 136.67746 4278190080
758.35223 774.4729 599.96423 4278190080
287.30295 70.371391 422.88599 4278190080
953.77844 562.27026 487.85654 4278190080
423.02585 719.565 269.10989 4278190080
71.373711 459.65784 440.01144 4278190080
67.834869 725.7655 432.67746 4278190080
229.68788 718.11511 748.72913 4278190080
499.91965 239.27261 212.2955 4278190080
580.97662 807.89374 238.36752 4278190080
507.40778 827.69934 585.21643 4278190080
644.08521 562.05157 335.68936 4278190080
220.04945 849.35449 406.06076 4278190080
642.93542 779.13293 968.33105 4278190080
106.79197 178.15878 663.896 4278190080
375.90186 249.5325 99.553856 4278190080
815.91333 317.36737 825.31934 4278190080
224.59079 547.05524 519.43445 4278190080
973.31989 22.974895 758.70709 4278190080
161.61542 603.95154 542.60083 4278190080
399.98294 87.359276 346.30014 4278190080
985.19934 731.44452 908.35175 4278190080
296.88873 951.49396 733.70624 4278190080
702.94946 570.42938 488.83917 4278190080
647.28052 677.22137 666.99799 4278190080
287.17654 29.123222 916.53046 4278190080
386.73038 845.03656 209.89784 4278190080
188.04973 45.627319 756.95306 4278190080
707.48419 1018.9472 779.92798 4278190080
442.19128 156.56265 359.87949 4278190080
984.79211 556.54559 447.23877 4278190080
307.09225 517.74493 154.68327 4278190080
191.44397 814.63367 82.177231 4278190080
925.15021 493.58316 652.60663 4278190080
389.98941 116.86367 305.82797 4278190080
32.98737 404.04019 334.9512 4278190080
949.51782 790.77057 155.98775 4278190080
135.41568 978.82031 201.61507 4278190080
892.36877 662.3045 196.5623 4278190080
648.29675 80.495804 353.12494 4278190080
1008.1763 41.287895 909.67053 4278190080
431.41501 348.38013 403.4155 4278190080
586.09827 539.8241 194.04918 4278190080
668.27551 440.9743 687.63232 4278190080
296.88214 830.96368 804.49603 4278190080
602.71014 863.95111 184.53622 4278190080
937.66132 789.46893 975.30682 4278190080
69.649071 924.88458 930.12714 4278190080
271.26413 793.25336 568.43164 4278190080
467.82645 417.55011 648.92749 4278190080
820.95142 401.72635 690.21533 4278190080
706.62195 833.14136 14.595494 4278190080
86.037415 395.23962 554.41962 4278190080
280.08658 39.515137 995.39392 4278190080
967.71893 336.39728 802.3576 4278190080
748.21497 939.10736 642.30872 4278190080
932.75116 852.76868 407.77762 4278190080
884.05798 922.41779 308.6622 4278190080
790.18512 169.68192 77.915565 4278190080
334.61676 637.50836 495.46567 4278190080
983.54425 434.45972 897.19202 4278190080
649.75958 117.08165 706.33337 4278190080
664.3551 203.11906 77.572998 4278190080
194.77469 483.20566 117.08813 4278190080
166.16859 426.92459 453.48541 4278190080
968.52618 151.13953 368.59277 4278190080
586.8349 59.890697 197.3615 4278190080
994.61255 943.94867 95.779266 4278190080
279.27472 710.13379 265.46118 4278190080
357.19031 20.750542 902.96954 4278190080
852.65594 1004.2948 313.42926 4278190080
725.84796 630.05438 430.51093 4278190080
408.18137 270.40945 633.63 4278190080
485.75436 465.18414 92.835632 4278190080
602.84247 631.35272 519.76019 4278190080
32.327892 575.87891 670.89972 4278190080
400.92068 138.71384 730.79047 4278190080
598.28217 109.32636 650.73914 4278190080
694.06146 388.6011 336.87289 4278190080
959.52264 745.79138 357.62344 4278190080
838.49213 574.44739 337.91821 4278190080
127.92141 276.29535 967.9726 4278190080
558.43231 684.47675 214.38203 4278190080
168.0623 146.23108 679.56616 4278190080
260.89792 749.07355 286.91891 4278190080
780.65814 781.40143 862.79785 4278190080
427.55789 158.32213 1001.5117 4278190080
134.34834 756.60431 86.838043 4278190080
785.08746 426.66574 475.43915 4278190080
97.96035 362.18839 197.23053 4278190080
455.58377 176.68053 771.67792 4278190080
793.50201 304.60193 23.97327 4278190080
737.47455 863.03424 708.45001 4278190080
951.85663 7.0965543 854.68109 4278190080
607.42279 267.99448 579.75464 4278190080
894.34167 24.652626 337.15607 4278190080
733.13953 452.21051 495.47821 4278190080
710.65118 586.55884 228.08252 4278190080
797.48926 347.6463 654.74829 4278190080
248.92839 445.60666 1016.9366 4278190080
446.15894 901.19043 169.61719 4278190080
193.83684 670.69244 474.21912 4278190080
217.8101 384.16699 313.25339 4278190080
926.26007 312.02359 320.34991 4278190080
756.94116 919.44635 588.34442 4278190080
312.69577 789.78809 612.99701 4278190080
649.85187 498.92758 41.207554 4278190080
121.33008 185.5788 627.76642 4278190080
349.4126 983.06805 975.41272 4278190080
1004.1609 207.99643 397.01938 4278190080
997.09753 654.15533 274.20984 4278190080
142.71472 847.99219 944.90228 4278190080
616.93384 41.80228 305.06924 4278190080
930.18719 968.06238 617.09283 4278190080
226.53714 701.00354 512.53925 4278190080
814.88153 1013.6993 278.3273 4278190080
403.87857 639.55115 777.25488 4278190080
445.08612 760.88123 962.83368 4278190080
48.852547 86.293861 921.90173 4278190080
0.26527119 66.454742 105.89814 4278190080
397.28467 39.55228 760.05347 4278190080
671.49451 182.267 584.04565 4278190080
592.39673 799.20081 625.84796 4278190080
897.466 705.38806 569.91034 4278190080
490.55884 931.92517 246.91385 4278190080
1003.0981 722.8067 236.61316 4278190080
257.42535 102.6853 876.16431 4278190080
10.680225 547.77142 613.04559 4278190080
973.51392 596.62396 699.33942 4278190080
871.41559 596.88928 765.79419 4278190080
977.31372 994.17389 805.34644 4278190080
713.36725 641.6684 987.61346 4278190080
273.4129 210.06512 762.81427 4278190080
899.26086 83.531113 444.20233 4278190080
445.17117 574.08997 352.1275 4278190080
692.08502 553.18799 50.934212 4278190080
928.69818 810.61334 153.61951 4278190080
780.86249 821.29358 701.39093 4278190080
369.90808 770.8075 274.01492 4278190080
45.247509 618.22308 870.90417 4278190080
811.04169 571.5368 841.07806 4278190080
592.38812 260.90405 458.74649 4278190080
556.00159 534.31696 668.81158 4278190080
294.81589 409.57779 752.34271 4278190080
739.01819 854.74896 302.43268 4278190080
67.145691 522.83398 855.62067 4278190080
118.0799 427.53214 642.23407 4278190080
271.6994 184.39464 439.52765 4278190080
973.09033 554.30273 186.33511 4278190080
223.10529 599.55023 804.55823 4278190080
70.009468 386.59189 352.09503 4278190080
911.08759 978.98004 612.99908 4278190080
345.83405 510.98163 123.31602 4278190080
1014.6456 805.79749 532.8938 4278190080
742.98834 520.81573 363.64276 4278190080
21.421047 587.96143 886.47675 4278190080
877.04175 706.04132 290.00888 4278190080
495.27579 977.74072 474.4035 4278190080
934.80341 926.83105 4.7062187 4278190080
97.138535 125.93635 604.25641 4278190080
901.69672 195.94582 990.84833 4278190080
229.79176 83.033371 945.82837 4278190080
842.79083 428.8674 432.81 4278190080
966.10687 419.51306 214.60753 4278190080
475.0007 138.50143 735.42322 4278190080
838.64349 159.92247 299.38464 4278190080
701.12024 12.964205 1005.4259 4278190080
991.12909 508.23999 959.16663 4278190080
441.53259 419.0434 861.99768 4278190080
446.23883 516.18195 987.93402 4278190080
26.495256 393.87866 159.87985 4278190080
1017.3436 623.67041 242.91322 4278190080
939.17194 442.46127 671.78064 4278190080
347.98196 384.56815 67.293686 4278190080
562.58948 859.56885 205.7951 4278190080
274.01273 674.21228 365.71759 4278190080
573.39734 351.33252 378.68179 4278190080
554.8233 318.46161 886.92175 4278190080
489.98993 759.9942 281.96518 4278190080
327.98764 182.23303 798.14709 4278190080
291.92169 208.72829 168.02577 4278190080
451.80154 202.07187 791.69617 4278190080
694.71478 117.24384 210.15747 4278190080
342.49539 465.2258 594.72559 4278190080
409.78909 3.8153005 430.29443 4278190080
615.58417 277.82803 80.506744 4278190080
981.30176 851.2254 431.83926 4278190080
335.98355 382.04871 750.30084 4278190080
198.90533 872.03864 486.29507 4278190080
480.87051 176.02628 668.52808 4278190080
255.01761 467.94794 877.25641 4278190080
423.04337 919.74951 55.328259 4278190080
190.73956 590.46423 172.5721 4278190080
400.89703 932.95966 637.79791 4278190080
995.62262 318.74872 641.61322 4278190080
401.91708 934.33289 919.44122 4278190080
482.42383 891.6347 746.66663 4278190080
914.26306 203.61826 104.71532 4278190080
640.56396 402.52359 976.75397 4278190080
102.859 883.3941 128.78023 4278190080
771.38708 114.41171 596.72821 4278190080
624.64349 537.45508 492.47766 4278190080
679.97174 728.19464 58.941929 4278190080
852.54382 105.09169 991.90155 4278190080
466.34174 76.714333 286.6503 4278190080
83.954918 478.63141 196.98322 4278190080
1003.3962 961.05524 64.617905 4278190080
726.06281 851.3183 268.23615 4278190080
830.77808 467.88226 670.75977 4278190080
783.53204 570.74127 530.15387 4278190080
912.31232 318.12836 644.56555 4278190080
485.0405 942.77185 158.02066 4278190080
977.51819 598.74353 886.21533 4278190080
12.460088 427.28738 991.30701 4278190080
1004.3616 893.62909 44.021336 4278190080
267.01196 977.58405 522.65277 4278190080
463.99518 956.98016 459.70798 4278190080
528.6131 659.04297 287.02631 4278190080
796.84924 465.82104 754.90857 4278190080
443.60901 225.35313 301.64981 4278190080
973.76288 113.66543 619.77814 4278190080
594.32843 598.70593 538.54999 4278190080
752.34906 552.22406 113.29353 4278190080
614.56439 564.68414 540.58093 4278190080
581.8714 545.04584 410.21002 4278190080
625.8927 812.0578 363.79404 4278190080
124.54548 252.05298 296.7742 4278190080
584.25348 780.66608 955.81714 4278190080
871.27979 553.51532 397.63821 4278190080
602.18835 997.12433 622.99133 4278190080
903.83813 946.88715 736.6568 4278190080
499.61627 517.21558 311.3627 4278190080
14.16626 245.56465 863.58679 4278190080
127.45979 860.12903 404.27094 4278190080
668.04071 418.00043 949.31677 4278190080
54.250706 19.893169 737.37457 4278190080
418.04474 144.43864 989.42755 4278190080
714.81897 728.69214 746.09357 4278190080
646.63611 575.97186 275.60889 4278190080
20.274334 154.16022 248.7332 4278190080
643.26569 33.998352 171.62036 4278190080
355.92245 533.61462 688.83594 4278190080
667.28516 547.78088 934.40057 4278190080
506.87195 675.24066 770.52966 4278190080
911.14288 319.28137 164.53008 4278190080
836.45966 373.53207 184.42325 4278190080
549.83423 791.57684 328.86191 4278190080
515.26172 482.39578 33.554012 4278190080
237.35533 105.03188 609.52588 4278190080
512.96423 125.30621 763.6861 4278190080
761.69745 768.5719 797.68445 4278190080
933.31781 100.49437 307.2991 4278190080
598.15375 767.77954 855.08002 4278190080
508.55432 250.65149 506.32068 4278190080
255.08394 137.79437 825.60205 4278190080
419.61401 974.25403 175.13414 4278190080
604.03729 500.08823 966.71094 4278190080
932.89917 1015.35 425.10675 4278190080
966.45319 228.70531 530.13861 4278190080
551.97906 741.66956 655.44482 4278190080
291.66519 479.36697 400.01672 4278190080
65.349655 388.68475 500.51111 4278190080
372.64877 986.83844 244.29063 4278190080
203.72876 471.39279 494.94211 4278190080
710.04944 726.47675 632.73651 4278190080
511.65152 122.09074 582.99048 4278190080
686.78564 726.12799 59.078739 4278190080
629.49664 635.02716 50.428719 4278190080
30.603365 577.48035 279.13403 4278190080
560.742 105.45942 1020.8036 4278190080
192.18681 397.1246 476.17053 4278190080
592.20355 462.47427 864.85529 4278190080
68.714638 835.12305 827.69373 4278190080
313.00528 14.851782 275.08655 4278190080
807.94739 724.90125 1001.5632 4278190080
416.68387 212.55275 99.654007 4278190080
999.67438 899.33838 825.78204 4278190080
34.753124 504.83505 436.80917 4278190080
85.181839 535.43842 1014.2896 4278190080
364.31586 72.180389 95.748955 4278190080
361.11945 264.36719 492.87357 4278190080
837.28998 856.57074 955.34784 4278190080
678.14526 925.2854 766.47083 4278190080
481.83902 214.29065 781.32263 4278190080
756.92554 1022.238 482.22385 4278190080
734.48883 414.92194 694.77661 4278190080
834.14282 390.59631 570.11499 4278190080
635.9248 425.34943 50.950047 4278190080
48.734013 510.53128 586.38843 4278190080
39.023548 874.84717 658.56885 4278190080
134.77251 211.96658 922.93604 4278190080
627.64606 25.256561 755.50677 4278190080
558.9939 703.40179 656.79218 4278190080
301.46472 161.24083 871.08282 4278190080
58.787334 918.16638 869.32086 4278190080
541.01117 628.65521 260.24277 4278190080
211.78778 438.798 650.83911 4278190080
781.90277 50.722824 52.188522 4278190080
832.85284 99.456833 562.71979 4278190080
395.2413 138.48038 413.56696 4278190080
29.810135 273.25287 625.53351 4278190080
952.74615 900.89893 650.7901 4278190080
684.25293 435.89282 330.19193 4278190080
317.0451 737.35754 491.43274 4278190080
164.1279 796.1449 385.59912 4278190080
9.4487514 313.15607 1014.2543 4278190080
269.69153 524.94385 429.05231 4278190080
920.53064 282.84665 479.77515 4278190080
972.71912 91.699486 579.23199 4278190080
511.43893 486.9408 717.71234 4278190080
925.00586 516.75092 990.96527 4278190080
526.53943 445.4971 867.8642 4278190080
153.32951 105.75003 279.75702 4278190080
483.52142 422.79514 1017.1146 4278190080
974.95416 586.92303 789.2594 4278190080
336.55331 596.37177 78.415466 4278190080
326.80765 866.06329 603.35931 4278190080
755.85999 762.59393 886.20593 4278190080
211.6351 711.31305 977.90546 4278190080
790.86707 198.752 440.84622 4278190080
484.57944 99.757889 957.59717 4278190080
451.54468 626.2973 379.09424 4278190080
295.40887 779.62683 484.84427 4278190080
575.16589 239.14825 907.6394 4278190080
568.2804 190.10245 470.56241 4278190080
333.53983 526.65576 42.934177 4278190080
411.95529 853.46338 908.9975 4278190080
1015.3146 585.32336 647.59143 4278190080
877.52057 796.95844 334.90445 4278190080
831.42596 563.82556 533.65649 4278190080
248.2722 24.404985 633.41437 4278190080
181.86934 475.94968 235.71167 4278190080
560.96356 771.35852 1015.3385 4278190080
21.807823 322.52441 230.48676 4278190080
929.4472 890.80481 420.5892 4278190080
376.00961 200.34464 947.24493 4278190080
418.94379 612.29993 776.70837 4278190080
303.94125 603.6145 338.03174 4278190080
951.53265 457.13504 110.99019 4278190080
262.43713 264.56104 674.81573 4278190080
796.09357 512.83325 699.2207 4278190080
405.50793 694.70258 151.17039 4278190080
641.2196 231.66614 922.52893 4278190080
632.55811 253.47397 221.05333 4278190080
863.04486 158.92117 87.858154 4278190080
259.63403 534.93079 288.20279 4278190080
182.879 953.87457 900.50275 4278190080
959.58734 233.81583 480.11722 4278190080
273.61908 161.3485 937.25226 4278190080
384.60928 423.78561 177.81331 4278190080
35.425014 195.87921 690.64655 4278190080
734.64575 601.38715 361.34912 4278190080
885.8161 218.60677 593.01526 4278190080
784.34503 851.16486 846.4892 4278190080
1005.3984 690.20972 1005.4104 4278190080
69.256546 949.84375 516.34119 4278190080
357.45935 108.72276 446.21573 4278190080
233.96207 44.310131 680.03156 4278190080
714.07928 317.92923 841.38007 4278190080
627.33154 702.53851 241.16566 4278190080
805.1449 737.9635 437.04486 4278190080
471.79141 448.60925 14.432032 4278190080
833.14056 310.42538 233.03879 4278190080
402.15579 70.770432 60.203659 4278190080
224.64502 52.168816 750.41339 4278190080
206.0554 121.42536 676.25714 4278190080
722.39655 478.8847 784.97992 4278190080
144.61229 712.84674 829.29004 4278190080
824.64386 402.92606 123.21924 4278190080
642.02386 6.2576189 825.75775 4278190080
883.18951 811.40253 539.72125 4278190080
296.23441 259.19394 988.33051 4278190080
310.66644 68.334473 274.75589 4278190080
543.70526 470.49026 345.52634 4278190080
603.90887 695.13525 397.69513 4278190080
330.32227 901.19067 519.12048 4278190080
1006.5794 599.58722 998.00519 4278190080
767.55927 744.19952 686.85199 4278190080
572.8493 544.84338 65.778015 4278190080
696.06854 162.86725 72.035637 4278190080
497.82629 22.056789 883.43811 4278190080
13.547564 318.2912 118.63206 4278190080
1001.8781 628.95764 186.96654 4278190080
252.63399 148.6629 657.45679 4278190080
598.16034 752.57178 328.5921 4278190080
995.85547 58.89407 205.78278 4278190080
490.97595 41.473469 805.37 4278190080
464.98117 809.03278 525.56958 4278190080
127.83314 357.88208 46.412926 4278190080
193.61116 29.950619 209.28018 4278190080
265.64679 527.77692 231.33696 4278190080
125.08493 541.32446 549.62817 4278190080
243.717 519.20258 154.58583 4278190080
430.68353 771.83655 303.24872 4278190080
64.14035 345.99686 31.82052 4278190080
392.73245 317.85233 90.714592 4278190080
598.5152 808.82831 132.18805 4278190080
379.88525 249.80946 941.22083 4278190080
905.45477 377.64261 275.10287 4278190080
951.86774 571.25378 305.0535 4278190080
137.1479 836.90057 832.83044 4278190080
368.48486 961.98547 350.15491 4278190080
918.11304 181.70248 869.35748 4278190080
48.698868 612.38605 617.19403 4278190080
351.9476 676.52637 963.19086 4278190080
383.76813 45.258812 257.04318 4278190080
474.4827 643.77405 41.871483 4278190080
606.67078 1023.6593 291.68094 4278190080
523.8916 905.11407 669.32355 4278190080
798.99445 832.98181 216.5773 4278190080
80.047951 970.1297 29.477844 4278190080
912.87836 314.61456 991.46332 4278190080
239.03326 208.72762 149.16582 4278190080
84.390717 257.42648 761.55182 4278190080
701.58472 609.37408 414.07822 4278190080
640.77557 993.14221 459.33704 4278190080
897.81879 443.62488 79.111053 4278190080
939.69031 26.295645 78.770325 4278190080
207.37122 550.18719 983.8844 4278190080
876.69476 325.18167 792.86621 4278190080
69.272049 405.22961 738.99591 4278190080
98.749901 294.10797 29.610466 4278190080
66.213226 533.14124 238.33807 4278190080
215.37904 617.53198 495.76456 4278190080
976.93091 295.1167 81.138634 4278190080
367.00909 935.89227 50.280815 4278190080
826.34613 809.71106 493.9057 4278190080
905.45715 725.40137 520.20135 4278190080
984.22748 932.77258 46.388565 4278190080
944.11188 785.46735 371.57022 4278190080
712.97809 854.73938 776.79987 4278190080
427.974 953.48932 46.907837 4278190080
457.58447 1019.7025 580.04907 4278190080
695.92255 211.08157 173.58104 4278190080
167.6871 164.01245 468.69772 4278190080
248.82573 531.02155 380.59003 4278190080
299.10654 333.36768 166.3011 4278190080
793.01227 214.82484 891.70245 4278190080
289.21359 175.05235 800.47504 4278190080
335.60217 95.164253 561.94238 4278190080
707.17242 808.14233 392.68179 4278190080
459.97226 212.11635 322.17108 4278190080
506.8801 669.70081 317.8736 4278190080
62.929169 341.62335 528.9552 4278190080
236.51021 509.31042 692.96765 4278190080
705.20795 758.13617 199.98917 4278190080
61.797951 33.242714 533.35681 4278190080
228.09904 826.25494 748.1817 4278190080
95.801514 91.468559 923.23407 4278190080
896.27655 427.07071 1018.3983 4278190080
434.21896 110.24312 802.54065 4278190080
826.90076 570.21539 1014.657 4278190080
125.07184 53.095463 660.35779 4278190080
442.94543 116.02463 1001.9811 4278190080
971.90063 352.53485 487.29156 4278190080
640.86823 33.742775 221.42773 4278190080
840.85742 95.540726 254.67044 4278190080
350.21426 323.63977 56.925407 4278190080
74.39595 419.44128 148.39397 4278190080
997.63 291.71786 575.46472 4278190080
992.02826 725.93683 685.70782 4278190080
770.56891 528.83759 231.92319 4278190080
761.22589 653.90942 285.01865 4278190080
397.58371 72.854866 401.04327 4278190080
375.56485 20.755489 753.57812 4278190080
862.85638 661.62372 787.32086 4278190080
60.284134 478.48114 882.86163 4278190080
314.95459 828.69543 182.50139 4278190080
371.87997 903.09137 601.94269 4278190080
520.27393 876.72137 893.66058 4278190080
71.738647 844.74963 595.59741 4278190080
757.44647 591.31854 100.43496 4278190080
989.36963 328.54449 754.34436 4278190080
250.38831 726.12817 827.19928 4278190080
651.43158 77.693024 847.95471 4278190080
381.0097 940.54944 485.57849 4278190080
144.33058 1000.8336 964.05963 4278190080
3.192203 291.78815 768.75507 4278190080
185.6936 663.66815 647.84644 4278190080
787.63629 159.94208 500.56775 4278190080
657.29681 231.68073 321.31738 4278190080
228.89423 989.1272 912.63599 4278190080
329.32919 954.49683 217.18044 4278190080
59.673569 180.88513 943.30865 4278190080
886.8728 832.31671 1021.0016 4278190080
710.82758 189.32642 937.55109 4278190080
172.40604 333.65698 914.38464 4278190080
112.46568 336.84921 182.17276 4278190080
881.2207 522.54279 845.84088 4278190080
505.06714 286.17908 1005.783 4278190080
1005.6349 943.47595 213.46368 4278190080
302.95227 148.37015 178.59088 4278190080
191.58824 477.69934 109.08772 4278190080
408.76868 537.37292 289.97287 4278190080
328.0773 400.24573 98.289574 4278190080
325.07895 87.073296 287.616 4278190080
238.63004 259.47934 621.27301 4278190080
129.01466 371.94501 958.12219 4278190080
311.18744 229.16573 456.66498 4278190080
133.02831 734.23285 742.84406 4278190080
114.81127 715.86774 662.32001 4278190080
328.27496 1018.82 810.69012 4278190080
506.86584 186.40828 264.3895 4278190080
615.95355 595.17694 801.76239 4278190080
905.92639 923.25427 178.00813 4278190080
1004.216 224.33324 265.08142 4278190080
267.83197 462.96326 524.56079 4278190080
889.10498 591.97791 896.5058 4278190080
823.22717 903.16534 101.67151 4278190080
255.89212 12.193668 835.90436 4278190080
998.73621 127.00494 527.77209 4278190080
637.05621 455.27991 522.59216 4278190080
423.74634 962.14575 709.00043 4278190080
688.1358 554.0993 280.17737 4278190080
465.89822 436.02573 179.43166 4278190080
643.90637 416.24173 403.76489 4278190080
908.98779 684.07373 866.72815 4278190080
409.54858 549.17865 434.70609 4278190080
282.05435 348.40582 313.87146 4278190080
383.72586 604.29791 326.06512 4278190080
195.63023 579.03412 453.07007 4278190080
723.40234 192.0903 908.34998 4278190080
221.99449 615.83661 846.49573 4278190080
930.99487 279.97247 376.59503 4278190080
187.17227 745.87067 812.62073 4278190080
366.60394 365.77707 204.86247 4278190080
770.36884 250.76486 888.93616 4278190080
613.09698 660.31348 414.11484 4278190080
23.803062 942.3678 762.52063 4278190080
337.6745 302.09369 342.81857 4278190080
663.73962 497.72391 921.85272 4278190080
92.809685 197.12627 89.943001 4278190080
1001.1597 419.12076 705.77966 4278190080
823.65533 326.11566 985.75208 4278190080
176.25038 513.28796 707.6228 4278190080
988.87115 879.89185 49.399857 4278190080
169.7336 626.26068 300.16473 4278190080
34.669777 215.35765 960.47815 4278190080
448.78461 239.16072 878.84601 4278190080
187.30527 576.83521 156.93967 4278190080
530.12384 216.57484 654.66357 4278190080
427.97653 309.38452 851.78986 4278190080
517.91956 286.54419 246.9106 4278190080
199.69917 86.199539 573.02625 4278190080
161.45126 262.44992 62.314194 4278190080
869.07404 227.32104 942.20605 4278190080
918.47394 397.05463 544.46674 4278190080
194.63866 431.72443 759.8244 4278190080
131.11682 880.50903 998.98511 4278190080
1009.9628 43.814293 551.82031 4278190080
142.90247 573.93811 768.3952 4278190080
797.56604 1001.9147 53.779713 4278190080
625.3559 495.8342 340.32388 4278190080
872.26648 695.53339 426.52344 4278190080
421.29276 856.98462 688.97333 4278190080
483.60693 702.05872 916.29437 4278190080
401.81302 596.53265 289.34903 4278190080
946.27972 791.17126 721.07343 4278190080
682.10413 922.28809 577.58246 4278190080
657.08923 908.25092 621.39673 4278190080
184.90958 27.153391 171.33488 4278190080
953.30475 824.71942 149.24956 4278190080
1007.0845 426.07535 645.08374 4278190080
323.40836 274.34186 316.61716 4278190080
749.93176 695.63458 149.60179 4278190080
414.90512 155.24155 851.66052 4278190080
307.19949 557.05457 424.19315 4278190080
596.54852 479.33429 191.36443 4278190080
293.62195 137.43843 89.652527 4278190080
871.20441 794.52765 997.90344 4278190080
468.60117 979.43726 1.0568371 4278190080
639.93604 908.742 825.77631 4278190080
789.18561 891.82648 227.85162 4278190080
410.26935 191.23483 502.19348 4278190080
726.88654 941.16663 173.82806 4278190080
876.48828 332.07172 329.06961 4278190080
704.1488 639.27124 886.12415 4278190080
104.34194 211.81973 341.45847 4278190080
295.70636 505.44168 478.89688 4278190080
385.35889 352.64609 249.42456 4278190080
359.26233 821.24725 204.86182 4278190080
360.31918 437.18326 89.603813 4278190080
162.09546 202.36887 981.4303 4278190080
389.94708 612.63824 148.66512 4278190080
892.14056 315.52475 65.831718 4278190080
41.968624 168.01303 397.90344 4278190080
371.03824 872.16187 13.174665 4278190080
233.16241 976.50378 224.9944 4278190080
574.62085 248.21013 730.4361 4278190080
29.517761 633.56903 59.08215 4278190080
278.94232 992.83136 880.32941 4278190080
483.80414 329.15054 293.51266 4278190080
573.40796 491.24597 495.88153 4278190080
530.83826 881.19305 84.519753 4278190080
679.50336 749.33362 400.04449 4278190080
745.33508 791.30225 568.05756 4278190080
119.23851 138.34048 416.21936 4278190080
132.41318 371.5029 368.72314 4278190080
357.40756 946.12378 616.93329 4278190080
63.843643 975.64154 226.5023 4278190080
122.9258 230.58385 195.33366 4278190080
1003.2552 714.388 524.48419 4278190080
272.76782 263.79593 1015.7302 4278190080
768.64935 794.63416 872.92322 4278190080
853.16913 450.13751 598.25684 4278190080
229.21361 171.47258 365.55911 4278190080
797.27112 290.71109 503.8996 4278190080
189.49051 423.12427 875.40247 4278190080
558.21362 780.53186 797.52625 4278190080
151.14694 844.37549 749.16779 4278190080
377.64923 967.30127 979.75159 4278190080
572.98291 946.55646 670.13959 4278190080
73.46711 195.32428 933.93555 4278190080
65.197289 963.97363 704.5697 4278190080
938.12054 793.14276 130.70723 4278190080
512.37738 1022.3563 302.17981 4278190080
877.93646 795.6275 592.89093 4278190080
357.83606 985.11798 1016.0152 4278190080
209.23854 519.33167 772.547 4278190080
1006.7648 670.47858 592.92249 4278190080
731.93256 24.127821 536.22375 4278190080
687.68414 597.11072 458.78024 4278190080
333.82376 670.57782 654.10449 4278190080
243.75931 735.77515 594.07819 4278190080
948.32904 649.89563 363.22089 4278190080
55.036251 138.27304 361.57724 4278190080
357.21606 1016.2095 133.20473 4278190080
950.10699 350.04559 94.322716 4278190080
942.12219 559.28412 613.65436 4278190080
690.66919 542.04895 260.13293 4278190080
259.59167 249.98148 284.26074 4278190080
795.81549 937.66565 881.37146 4278190080
230.5957 247.4894 527.94934 4278190080
884.7002 491.24869 239.72444 4278190080
454.77838 415.57773 889.62012 4278190080
817.99927 470.61398 3.8931351 4278190080
155.57652 827.83002 1020.1027 4278190080
288.78125 753.93701 346.14825 4278190080
383.10397 672.0592 905.43243 4278190080
996.7583 338.72839 423.48135 4278190080
232.89125 598.32007 673.46283 4278190080
517.15198 370.13553 587.12848 4278190080
374.52347 600.7312 834.61786 4278190080
902.47278 461.43143 301.86655 4278190080
118.19724 916.20984 717.44427 4278190080
1007.8173 710.20911 164.05826 4278190080
1011.7104 865.78558 991.88831 4278190080
1007.8131 130.56686 721.82532 4278190080
329.9614 513.67084 369.88452 4278190080
211.3938 486.42914 708.61292 4278190080
634.87512 719.32037 282.93298 4278190080
284.33795 212.47238 653.06848 4278190080
871.46643 586.99585 229.79971 4278190080
682.08429 465.46863 691.23114 4278190080
983.95081 583.66589 583.44098 4278190080
677.39514 567.48322 269.65005 4278190080
841.45337 555.19366 111.43565 4278190080
809.34167 539.00677 242.00252 4278190080
507.16699 868.9682 755.67334 4278190080
877.05151 56.361984 218.10248 4278190080
561.66443 691.23712 937.42285 4278190080
844.59741 975.57507 125.89523 4278190080
473.66589 823.0415 712.89105 4278190080
703.46558 481.12579 154.35971 4278190080
370.69675 441.07663 738.02557 4278190080
954.1377 94.471733 281.50879 4278190080
199.78777 935.92511 836.70245 4278190080
311.22342 721.26678 351.70923 4278190080
553.22595 204.43375 196.67743 4278190080
284.89926 57.485249 253.03941 4278190080
503.00174 619.14966 944.27655 4278190080
416.42459 439.74704 895.85162 4278190080
542.31982 913.4129 694.89313 4278190080
231.21089 592.87854 152.01892 4278190080
385.57062 963.57526 593.09552 4278190080
99.596199 893.71301 687.56726 4278190080
381.10498 69.500755 599.49237 4278190080
193.80745 380.72418 296.75912 4278190080
545.51666 933.95013 501.19287 4278190080
742.19409 194.84938 558.6781 4278190080
995.23352 697.85114 153.82779 4278190080
915.51007 90.275696 593.57483 4278190080
787.36169 632.59552 482.98776 4278190080
458.25482 863.8064 51.866272 4278190080
610.27374 225.37701 1015.4415 4278190080
179.36928 324.97324 885.15454 4278190080
866.93652 706.07819 954.65527 4278190080
442.42892 899.88568 311.37949 4278190080
739.18805 421.40234 221.32959 4278190080
216.38092 139.59645 416.17896 4278190080
775.05902 110.82997 90.03006 4278190080
928.88684 2.3400211 180.30576 4278190080
498.46164 789.70172 812.90125 4278190080
981.4494 223.95651 652.7077 4278190080
9.3156719 834.23022 878.08472 4278190080
0.75721836 1013.5995 179.05792 4278190080
885.91174 856.53607 885.13617 4278190080
816.56708 274.965 761.02179 4278190080
103.94653 1014.153 158.42413 4278190080
325.27609 206.53395 298.0206 4278190080
741.45508 981.59296 408.85056 4278190080
831.48511 886.4798 411.19058 4278190080
1011.7909 360.94144 176.89227 4278190080
800.69214 318.39084 400.84879 4278190080
429.39984 327.70651 211.07904 4278190080
283.48453 328.46375 200.67856 4278190080
462.54248 190.3755 33.214634 4278190080
323.67862 1006.9426 308.17963 4278190080
60.700405 86.889069 298.33264 4278190080
219.12454 412.16516 504.86661 4278190080
517.14514 129.62024 462.45959 4278190080
925.99567 961.10535 324.93939 4278190080
313.18628 948.89624 685.88086 4278190080
490.07855 725.58844 1004.2717 4278190080
890.92737 130.98825 307.97821 4278190080
78.006386 414.47278 636.44196 4278190080
278.68497 877.01526 826.81744 4278190080
311.8996 176.69386 809.76001 4278190080
620.07922 237.39427 896.64905 4278190080
918.41187 456.51883 284.81424 4278190080
399.27844 973.66394 414.43448 4278190080
861.73804 875.65967 351.53986 4278190080
162.67743 164.84592 276.4361 4278190080
848.55829 654.92444 1002.0245 4278190080
828.82996 521.85181 109.01276 4278190080
112.80816 599.85822 523.48553 4278190080
749.25012 878.54315 376.50082 4278190080
552.06757 166.44275 553.1947 4278190080
337.82755 786.52197 790.58899 4278190080
210.47661 680.93378 223.10777 4278190080
495.29086 56.212257 172.77173 4278190080
909.72534 917.95032 24.431376 4278190080
237.26518 56.627728 189.2773 4278190080
513.70129 905.18597 844.20178 4278190080
491.72577 710.01593 342.05359 4278190080
600.73853 822.8241 941.9118 4278190080
100.2241 548.07422 796.45496 4278190080
476.72491 76.141777 962.89771 4278190080
5.9196005 413.96933 725.41962 4278190080
796.50854 624.44592 382.35342 4278190080
1019.6163 95.736786 438.56567 4278190080
168.38808 1005.4621 332.51599 4278190080
192.81944 218.72729 389.14371 4278190080
382.09674 732.42859 270.32971 4278190080
202.29849 200.15434 980.34564 4278190080
544.35205 800.89288 779.16974 4278190080
462.26385 901.117 303.24399 4278190080
234.7188 353.84192 379.38574 4278190080
173.61647 359.76151 793.3551 4278190080
899.03607 132.27007 393.80103 4278190080
257.38953 127.88641 489.53778 4278190080
695.9552 296.27448 470.99991 4278190080
4.4711847 489.09393 689.72717 4278190080
393.6149 871.19067 398.15576 4278190080
663.94458 49.489162 598.31012 4278190080
620.29028 593.84125 375.203 4278190080
375.46002 32.105091 252.32001 4278190080
678.70398 266.82388 606.16193 4278190080
34.089756 440.44034 965.9234 4278190080
827.44482 315.47644 74.193489 4278190080
197.24583 572.86597 202.0799 4278190080
686.78363 244.82115 498.35437 4278190080
133.78355 249.29234 987.4483 4278190080
823.51074 642.90723 834.63898 4278190080
197.66652 282.85184 884.12811 4278190080
795.97662 903.14209 453.96936 4278190080
147.17964 254.60213 486.07446 4278190080
399.49963 933.30615 752.89832 4278190080
1005.6616 967.39587 169.3387 4278190080
947.58496 770.8407 484.81512 4278190080
1021.7784 968.08655 33.681087 4278190080
199.85837 630.87018 278.50223 4278190080
698.21277 764.65375 527.79456 4278190080
661.66107 564.16449 146.70181 4278190080
472.30005 761.83099 429.55365 4278190080
332.42816 533.80768 308.69577 4278190080
786.39752 680.9873 563.29791 4278190080
248.47202 56.486942 472.60403 4278190080
1001.3704 38.148502 415.99991 4278190080
146.70905 985.73346 162.84062 4278190080
631.52417 983.51196 106.92718 4278190080
665.20526 159.37033 737.79736 4278190080
943.70752 857.58307 478.45111 4278190080
447.50208 495.24414 18.615616 4278190080
594.20392 967.54419 780.44666 4278190080
1023.7576 275.97235 290.25427 4278190080
308.45334 38.369896 971.24158 4278190080
871.75122 286.84192 3.7285132 4278190080
320.35526 264.21225 41.877014 4278190080
736.35516 410.92133 3.6104994 4278190080
899.1958 18.445498 987.12244 4278190080
1006.123 683.65076 122.49278 4278190080
719.92035 603.35828 980.07587 4278190080
174.37144 26.860365 451.32001 4278190080
192.98706 621.06427 394.8642 4278190080
973.43372 620.82184 670.83655 4278190080
239.68797 929.27515 709.20642 4278190080
186.92955 777.02637 996.04834 4278190080
190.65805 73.381645 236.2606 4278190080
232.53508 809.73682 647.18195 4278190080
236.14557 684.93256 665.62744 4278190080
199.26804 667.05554 325.2782 4278190080
321.7608 362.97586 928.63647 4278190080
277.83667 537.34729 955.49683 4278190080
729.15668 730.33441 552.5611 4278190080
100.02087 679.76807 149.38295 4278190080
770.85742 919.45605 54.658112 4278190080
456.06384 82.385597 831.68451 4278190080
428.11218 273.04367 905.06616 4278190080
664.3728 505.57874 690.80298 4278190080
287.55475 741.7243 351.73553 4278190080
953.18219 940.99231 1018.7911 4278190080
254.46036 238.75314 357.76694 4278190080
159.09682 516.58984 895.11426 4278190080
90.593651 221.74651 601.44861 4278190080
643.15472 321.76736 257.21671 4278190080
792.53772 68.624786 152.67276 4278190080
847.1958 524.68866 235.05836 4278190080
654.88031 952.80084 508.10202 4278190080
535.94647 593.17365 1013.6807 4278190080
202.74942 880.72839 731.40503 4278190080
554.48492 809.91052 648.3974 4278190080
549.276 40.370892 887.15051 4278190080
907.04291 199.46771 379.74036 4278190080
778.15717 290.06137 601.48688 4278190080
355.6058 933.21613 923.25421 4278190080
612.82251 701.75378 991.87903 4278190080
765.4953 524.94965 492.56766 4278190080
1000.5536 155.82994 421.3685 4278190080
484.65567 691.77643 1014.5421 4278190080
474.3364 894.52582 871.27051 4278190080
181.74146 425.01077 657.18103 4278190080
830.13885 974.2868 697.55194 4278190080
693.28937 857.32971 897.01965 4278190080
49.029716 611.48688 163.08102 4278190080
650.51654 967.09271 72.297142 4278190080
549.77081 555.91522 774.05096 4278190080
517.64978 297.41052 275.00058 4278190080
1010.2175 273.96414 430.83051 4278190080
407.58594 758.61981 98.606926 4278190080
398.12808 208.95621 993.13275 4278190080
245.39861 390.69766 394.14355 4278190080
902.57965 196.83652 344.43036 4278190080
576.13159 890.12592 177.76007 4278190080
449.15128 939.15558 789.24701 4278190080
612.2323 565.67218 732.33972 4278190080
684.52942 91.44297 264.25491 4278190080
434.58038 609.09277 561.66541 4278190080
709.58099 595.31024 835.62958 4278190080
116.41148 1002.8962 570.24939 4278190080
215.0184 377.02426 779.20563 4278190080
184.15117 622.42285 145.90327 4278190080
578.29474 501.00253 342.73978 4278190080
922.72504 53.134155 208.86568 4278190080
76.485138 502.28543 124.02129 4278190080
865.73212 90.517738 689.69348 4278190080
574.07184 775.04718 781.13641 4278190080
838.32672 185.62758 366.22922 4278190080
375.99219 895.20856 961.53943 4278190080
187.62175 1011.62 940.43561 4278190080
757.87115 202.63843 293.4599 4278190080
513.07672 386.78961 915.88275 4278190080
658.98004 965.08435 392.88531 4278190080
1001.7198 863.80939 446.01947 4278190080
186.58549 940.29456 948.30487 4278190080
310.60678 782.02667 14.822632 4278190080
1000.3002 332.09848 789.86981 4278190080
757.43665 146.4252 975.49738 4278190080
99.665871 522.41736 846.70593 4278190080
37.205307 710.03912 834.32599 4278190080
977.64093 443.91028 12.964396 4278190080
247.10081 956.98706 399.754 4278190080
138.98358 591.96704 340.83832 4278190080
531.8689 569.68689 180.64772 4278190080
977.88837 756.27234 96.942261 4278190080
902.19324 42.879147 878.96893 4278190080
917.01587 19.179384 187.06738 4278190080
682.88568 776.61603 333.49258 4278190080
634.38306 876.28192 855.90997 4278190080
457.08902 913.48724 541.9491 4278190080
267.41498 867.12817 985.85938 4278190080
280.37936 90.228973 918.84644 4278190080
680.13336 229.21255 486.81348 4278190080
1020.9717 761.08142 32.500355 4278190080
177.61943 714.96979 788.77271 4278190080
274.56168 593.16302 831.65186 4278190080
129.53059 486.17889 850.83124 4278190080
316.59796 145.06458 603.44733 4278190080
650.09058 779.44763 455.72922 4278190080
482.00052 212.53665 345.21643 4278190080
1023.9496 479.95163 188.34459 4278190080
985.80902 760.33099 278.57355 4278190080
880.65546 416.46436 507.7861 4278190080
343.46893 413.43607 244.86755 4278190080
375.9693 591.05548 959.83734 4278190080
140.742 865.61719 529.00037 4278190080
972.39386 995.14777 1015.1793 4278190080
799.22516 287.74573 136.24382 4278190080
378.67242 937.8363 915.69147 4278190080
834.40167 395.83682 104.22812 4278190080
155.61809 395.78647 584.17975 4278190080
343.96268 357.59549 320.51074 4278190080
622.53625 214.25095 736.9751 4278190080
106.32235 557.71991 126.41119 4278190080
351.18991 933.68915 717.46667 4278190080
287.02725 50.431187 559.08386 4278190080
816.02759 1022.8251 530.23163 4278190080
807.20685 798.05017 817.97736 4278190080
943.45068 152.72263 731.81366 4278190080
835.14215 987.12427 103.6505 4278190080
939.3703 118.74237 499.43695 4278190080
499.55002 462.70505 857.03247 4278190080
820.06079 61.241287 47.283409 4278190080
533.03589 167.56364 605.0033 4278190080
659.44708 518.75354 514.69244 4278190080
352.91376 805.78082 565.12366 4278190080
911.99762 597.80841 563.94873 4278190080
418.22925 381.01529 337.99893 4278190080
212.20662 300.46597 490.72156 4278190080
944.02026 111.60812 453.84583 4278190080
23.670788 26.978401 572.5882 4278190080
523.10773 526.52844 11.293255 4278190080
356.1402 322.5892 72.534538 4278190080
403.42361 855.62512 240.09818 4278190080
1008.4269 491.07217 758.85175 4278190080
499.11938 843.98596 540.63251 4278190080
40.243038 731.98358 114.44094 4278190080
604.19177 126.21282 495.45624 4278190080
942.19067 338.41943 795.92218 4278190080
408.91223 258.43973 907.53033 4278190080
862.75806 282.11053 934.50873 4278190080
411.34628 805.21826 437.03714 4278190080
422.63953 137.35849 759.62634 4278190080
495.17407 540.7821 591.25146 4278190080
735.27228 525.20898 58.32362 4278190080
470.12399 0.32839537 902.30957 4278190080
1010.7565 40.571434 610.29315 4278190080
101.19745 644.76318 736.50598 4278190080
596.65369 562.95386 50.9254 4278190080
368.57587 971.86615 309.36514 4278190080
252.10619 810.62421 591.47565 4278190080
162.61491 197.97049 372.69394 4278190080
599.65204 620.61005 510.05243 4278190080
335.27841 91.784096 26.834528 4278190080
926.52985 827.05634 552.04352 4278190080
984.85345 273.18033 552.37195 4278190080
863.16302 259.93686 592.94336 4278190080
449.45615 361.13431 213.70657 4278190080
161.96211 957.78796 776.66046 4278190080
212.88751 302.36383 724.52661 4278190080
522.25262 554.47003 511.15079 4278190080
89.728317 717.08496 709.12128 4278190080
462.42224 292.737 305.73129 4278190080
972.47467 628.01538 397.51538 4278190080
999.3092 530.54523 200.57173 4278190080
527.35272 491.39871 473.75208 4278190080
55.724689 330.56174 733.6889 4278190080
648.66809 780.01788 70.823219 4278190080
862.37463 941.97998 4.6111932 4278190080
615.0351 130.86751 306.97504 4278190080
315.56168 653.12018 861.44507 4278190080
826.71246 742.84845 554.53003 4278190080
511.83371 181.27072 847.26703 4278190080
817.565 129.74541 451.28241 4278190080
191.0804 105.05462 981.82764 4278190080
391.65213 632.40735 449.22638 4278190080
865.40417 688.13208 779.78809 4278190080
575.09314 312.80011 535.80597 4278190080
645.91632 151.17474 453.78598 4278190080
650.52753 766.20984 584.6535 4278190080
957.50256 57.771507 213.77365 4278190080
794.94763 884.48395 956.62213 4278190080
325.47766 372.31769 113.89285 4278190080
148.74467 165.88269 243.63824 4278190080
600.0271 356.96307 348.69287 4278190080
557.85474 748.61523 981.10022 4278190080
1007.0811 590.01941 645.2323 4278190080
762.86926 141.11255 958.03241 4278190080
274.67523 787.02887 85.207169 4278190080
728.46124 413.55643 851.41699 4278190080
289.11472 347.05902 909.18854 4278190080
502.88837 118.00665 769.67249 4278190080
435.5105 443.48431 117.99016 4278190080
549.40332 592.229 283.87286 4278190080
793.04156 168.25607 640.83594 4278190080
117.73445 726.11084 365.45117 4278190080
74.834694 709.19196 955.47058 4278190080
720.06702 448.06119 72.58313 4278190080
654.09943 722.73639 859.612 4278190080
739.30658 427.19763 249.16846 4278190080
566.72357 716.31238 596.22748 4278190080
451.91211 195.20073 714.23413 4278190080
197.58458 630.71124 133.71843 4278190080
315.57474 156.11456 725.94745 4278190080
599.44757 949.15613 894.20349 4278190080
216.28352 42.890602 596.31433 4278190080
581.73468 117.7253 281.50629 4278190080
513.20526 837.7923 729.56744 4278190080
585.78839 467.89169 428.30386 4278190080
421.40042 183.19827 855.50153 4278190080
670.56891 749.92188 547.81384 4278190080
242.79634 177.83397 743.01459 4278190080
957.03046 375.41855 349.72583 4278190080
66.748901 690.99329 505.84039 4278190080
792.69635 266.44089 430.99655 4278190080
662.89984 482.72443 473.88715 4278190080
235.21414 40.459103 591.61243 4278190080
516.7204 553.66437 405.40472 4278190080
222.28787 115.45277 873.29645 4278190080
650.59174 536.85321 32.494705 4278190080
482.09326 183.42207 782.41656 4278190080
5.9071169 426.21841 960.25055 4278190080
748.92169 359.2489 311.6691 4278190080
74.647545 425.99777 1002.6624 4278190080
580.48792 194.69411 245.10327 4278190080
1011.4845 857.59393 727.8277 4278190080
461.37161 68.808075 768.2868 4278190080
28.984068 585.5285 297.95114 4278190080
434.38879 807.81635 413.40393 4278190080
283.68521 434.40811 950.25714 4278190080
316.17993 916.50134 109.67919 4278190080
74.596497 922.40851 535.89758 4278190080
10.847038 647.3302 895.14648 4278190080
322.51614 721.97772 297.14429 4278190080
301.17853 278.46567 491.83838 4278190080
546.2818 265.95016 325.43231 4278190080
250.10947 727.32178 394.24039 4278190080
1018.3962 756.30585 979.76886 4278190080
292.34741 166.69466 763.58527 4278190080
705.75134 450.37988 173.99336 4278190080
632.00842 766.55981 66.494728 4278190080
741.68762 841.15631 988.9032 4278190080
253.58525 852.00336 612.2334 4278190080
124.73175 150.51947 310.21115 4278190080
421.87604 451.698 588.67682 4278190080
913.71442 997.9798 854.62701 4278190080
215.14674 224.08923 557.94879 4278190080
609.38715 218.48547 290.25464 4278190080
565.15601 510.83289 456.94931 4278190080
304.74127 192.5842 907.32916 4278190080
478.73465 824.59265 649.88898 4278190080
545.22937 542.28027 467.04529 4278190080
510.13257 795.86554 295.04865 4278190080
98.365982 920.59729 445.56812 4278190080
408.57715 318.4733 897.26611 4278190080
997.25397 208.18773 871.24585 4278190080
827.88098 423.33447 71.335091 4278190080
361.82974 8.7216206 289.82056 4278190080
652.08441 573.87762 800.65344 4278190080
85.033684 878.6189 993.23767 4278190080
992.36285 333.35355 793.83032 4278190080
618.25183 878.58295 312.11057 4278190080
61.297134 364.71552 83.976105 4278190080
356.34576 463.08148 1004.5734 4278190080
801.91388 871.65863 299.04669 4278190080
675.17999 844.9126 507.23444 4278190080
522.42584 648.79358 930.56891 4278190080
593.76093 1010.6233 939.29053 4278190080
883.58148 638.7077 489.16818 4278190080
660.23492 723.74139 343.78708 4278190080
629.4726 692.10425 677.14062 4278190080
399.30289 286.35608 531.72357 4278190080
711.41345 347.65323 896.43909 4278190080
795.38959 703.99902 335.52057 4278190080
775.96295 481.91287 183.1792 4278190080
51.009624 133.09283 4.0917954 4278190080
558.24402 655.51868 652.88538 4278190080
464.81296 225.27959 639.50867 4278190080
380.10349 84.861076 254.21635 4278190080
869.27167 745.09601 977.95776 4278190080
189.05873 350.5686 646.06195 4278190080
866.1994 749.87146 932.41809 4278190080
373.92294 437.28494 256.07129 4278190080
246.36205 208.6745 960.07031 4278190080
581.88263 984.63745 417.98315 4278190080
765.06183 11.647062 551.07599 4278190080
769.15363 569.89111 182.59467 4278190080
398.03897 10.704056 407.87427 4278190080
13.547623 390.80753 492.73532 4278190080
267.76398 236.07916 213.83134 4278190080
221.72171 425.13788 564.39996 4278190080
867.78369 267.33728 290.27145 4278190080
776.20178 641.26025 727.5564 4278190080
8.2730551 887.62225 936.2309 4278190080
968.34332 445.50488 896.86835 4278190080
362.32651 186.5667 908.51538 4278190080
913.40253 955.72028 454.40649 4278190080
71.997177 329.75928 465.11053 4278190080
479.87143 343.30688 855.91809 4278190080
972.60675 611.07086 67.997238 4278190080
162.43811 832.7926 493.13513 4278190080
726.83807 676.57629 760.47241 4278190080
1017.1095 428.77802 377.73264 4278190080
720.66589 437.05109 241.3549 4278190080
632.89679 381.39444 686.8598 4278190080
505.76508 743.72095 873.42645 4278190080
390.28049 633.12347 805.14679 4278190080
844.68695 705.12061 110.90605 4278190080
285.79752 160.99205 454.21295 4278190080
117.71559 109.59882 41.283813 4278190080
185.71283 272.03693 874.07642 4278190080
678.84796 998.875 526.65265 4278190080
415.32037 991.9845 955.43073 4278190080
793.05298 688.65039 368.48178 4278190080
10.407899 297.54715 749.87622 4278190080
697.2677 803.31226 469.59717 4278190080
546.69415 169.59273 78.720604 4278190080
327.84091 1014.2797 783.84125 4278190080
438.74698 276.07721 944.83331 4278190080
892.9599 393.79282 30.432106 4278190080
934.24371 579.50562 302.46902 4278190080
784.32013 234.35359 277.34402 4278190080
286.97278 649.67395 245.32854 4278190080
218.40349 418.72696 933.97894 4278190080
586.88525 429.13486 207.52609 4278190080
312.76147 102.40254 1010.8383 4278190080
782.35864 649.09668 156.43108 4278190080
861.07922 976.93762 146.71077 4278190080
620.92047 391.6846 422.78796 4278190080
541.75378 260.6445 816.58075 4278190080
572.18585 170.88823 372.0864 4278190080
874.65491 955.20837 606.44 4278190080
127.99894 218.18114 232.11398 4278190080
373.32748 436.58463 650.84094 4278190080
283.3064 1023.4699 55.975819 4278190080
490.83249 312.23138 158.37836 4278190080
477.67084 70.590004 807.47504 4278190080
634.10193 931.66925 760.41266 4278190080
780.81268 528.58972 128.09727 4278190080
179.60065 46.343483 388.74176 4278190080
996.18146 618.52936 559.63 4278190080
344.26785 469.18427 490.83838 4278190080
950.70782 597.18317 709.01953 4278190080
158.82182 970.51068 121.60414 4278190080
809.66278 229.81708 121.07403 4278190080
865.63861 720.6496 433.30539 4278190080
0.016953468 174.32042 503.89542 4278190080
807.492 808.4223 411.56467 4278190080
543.90466 565.23499 940.15436 4278190080
672.00195 744.83569 986.49786 4278190080
36.743729 717.01709 581.02722 4278190080
596.37372 37.284935 26.211466 4278190080
63.212105 987.9928 623.39465 4278190080
772.23163 122.81461 569.90533 4278190080
893.83575 932.47736 799.72241 4278190080
1014.9098 774.11597 496.37198 4278190080
424.21518 774.13293 670.69238 4278190080
928.1106 557.62494 455.11475 4278190080
315.67526 77.529617 1020.3497 4278190080
231.82964 749.53156 741.18542 4278190080
194.3275 786.27533 434.20251 4278190080
775.35468 358.64905 471.48746 4278190080
801.56616 421.86115 435.48022 4278190080
400.96085 170.09277 558.29486 4278190080
970.86615 39.928524 466.77222 4278190080
746.58856 30.838312 216.88818 4278190080
218.96057 455.0535 991.02112 4278190080
889.65295 359.16409 524.64606 4278190080
320.76773 674.83936 602.17566 4278190080
317.11746 906.66901 327.70724 4278190080
34.302891 76.996483 89.982536 4278190080
468.5054 852.3512 448.63159 4278190080
939.99286 629.91736 870.49274 4278190080
351.47308 6.8781939 16.585495 4278190080
909.76788 977.74438 56.514019 4278190080
352.5401 700.33295 87.352333 4278190080
