# .PCD v0.7 - Point Cloud Data file format
VERSION 0.7
FIELDS x y z rgb
SIZE 4 4 4 4
TYPE F F F U
COUNT 1 1 1 1
WIDTH 1174
HEIGHT 1
VIEWPOINT 0 0 0 1 0 0 0
POINTS 1174
DATA ascii
245.49527 997.51434 315.10513 4278190080
645.50708 662.9248 229.42064 4278190080
626.99811 784.68274 668.09344 4278190080
273.10577 208.28728 462.5369 4278190080
789.95343 800.97064 388.70154 4278190080
381.78577 354.42813 982.90051 4278190080
85.408119 687.10321 214.5237 4278190080
772.00824 411.18497 592.85962 4278190080
728.40436 309.78293 931.41846 4278190080
907.41888 362.94943 702.71039 4278190080
476.63568 608.4447 676.22473 4278190080
791.74084 229.95181 315.14951 4278190080
1021.1615 856.94989 75.832268 4278190080
665.25488 106.05569 284.11954 4278190080
103.79178 896.00909 61.090153 4278190080
492.49332 253.79488 415.51828 4278190080
451.39386 339.203 78.621498 4278190080
665.91754 87.211235 489.80646 4278190080
234.77718 815.6156 799.58942 4278190080
142.19565 699.03442 138.53882 4278190080
844.90607 151.67015 746.98352 4278190080
497.1308 943.41095 976.9353 4278190080
812.28033 940.57245 809.88525 4278190080
888.11255 581.82733 915.94092 4278190080
148.2321 685.61914 787.95001 4278190080
209.32227 154.11246 17.744917 4278190080
624.84058 605.50629 356.94791 4278190080
703.46204 247.42387 444.15915 4278190080
169.26851 482.20105 235.77473 4278190080
968.85791 624.39673 934.8092 4278190080
83.396713 445.30273 62.479324 4278190080
830.38025 942.43353 1005.8903 4278190080
783.31555 730.71387 922.46277 4278190080
569.20081 594.82642 480.2901 4278190080
461.14169 743.05853 141.90923 4278190080
225.09174 952.3808 296.02167 4278190080
242.83664 553.22131 901.52802 4278190080
599.78455 232.68338 124.95187 4278190080
19.94371 401.95187 607.15289 4278190080
255.71844 346.80978 207.54962 4278190080
166.52762 430.20651 652.85236 4278190080
229.00696 236.58673 571.28589 4278190080
210.89725 1019.9023 277.99976 4278190080
109.36001 565.10309 872.82617 4278190080
589.65009 2.2447557 591.8847 4278190080
731.55933 227.33649 520.2655 4278190080
3.5810099 470.17313 49.486824 4278190080
905.10901 45.957691 282.1702 4278190080
6.0608687 65.901405 684.12207 4278190080
613.21381 321.61984 6.9318748 4278190080
820.76343 488.14746 437.13837 4278190080
449.61578 717.15442 673.7251 4278190080
1020.9017 928.0517 669.62738 4278190080
274.90146 13.411678 210.73045 4278190080
123.72764 603.06177 212.97522 4278190080
715.61237 310.62112 440.31171 4278190080
211.87782 314.20212 910.4848 4278190080
261.36465 195.31113 956.4425 4278190080
543.53485 201.37199 1022.3439 4278190080
203.65695 814.58582 319.96378 4278190080
210.58882 611.34918 808.11127 4278190080
647.72717 36.964996 501.26566 4278190080
297.4523 33.866703 405.31732 4278190080
967.07971 308.76816 418.729 4278190080
153.81017 432.49582 1021.7908 4278190080
366.78537 124.10815 308.41193 4278190080
807.09705 335.98596 622.61401 4278190080
693.58191 597.35065 817.92517 4278190080
626.02441 116.88548 1019.2972 4278190080
624.36835 320.54242 809.88293 4278190080
944.33209 531.13123 397.23218 4278190080
728.44336 154.85846 434.19717 4278190080
205.70901 452.31076 468.06387 4278190080
611.02637 395.39047 776.83203 4278190080
5.7553515 549.20062 185.32784 4278190080
3.5461478 915.98596 309.43597 4278190080
311.95807 699.08307 645.42194 4278190080
934.57208 368.66495 218.77258 4278190080
728.49725 994.68939 335.65808 4278190080
723.79443 595.05774 656.2005 4278190080
509.67743 515.38983 163.33176 4278190080
906.90961 219.83319 318.19022 4278190080
317.10675 425.54221 770.50098 4278190080
785.17059 12.568535 141.89143 4278190080
538.00262 18.323887 691.09204 4278190080
723.33051 21.870033 583.07806 4278190080
8.7664795 333.82809 258.1611 4278190080
654.18842 244.40021 626.82605 4278190080
872.961 972.89746 597.51544 4278190080
184.61909 672.69196 168.57317 4278190080
840.81958 158.36935 683.96301 4278190080
1004.1514 41.278934 903.7962 4278190080
298.34158 358.38568 305.33838 4278190080
44.842548 119.5563 317.90692 4278190080
186.73398 657.55896 336.2308 4278190080
877.82605 356.88943 358.10083 4278190080
436.90408 365.65591 691.92896 4278190080
695.06519 1019.8444 936.32916 4278190080
297.89124 868.80542 885.22662 4278190080
895.40668 29.424494 533.91858 4278190080
39.979858 870.24408 692.2879 4278190080
723.94287 850.39545 733.56683 4278190080
603.73907 124.73705 67.95253 4278190080
909.07745 169.57959 187.50883 4278190080
202.98436 356.31357 845.06781 4278190080
539.21515 210.1396 177.95723 4278190080
897.31598 647.0437 543.61316 4278190080
565.24493 318.10886 539.45752 4278190080
477.5741 616.00012 384.26291 4278190080
338.80072 487.40677 413.68741 4278190080
872.7193 527.38666 259.93152 4278190080
541.0072 227.32951 86.326981 4278190080
250.57404 831.06854 211.06403 4278190080
318.52655 716.146 380.64362 4278190080
506.03537 919.13037 736.95715 4278190080
327.10318 434.34552 947.0968 4278190080
505.06039 307.66153 570.14044 4278190080
24.673557 872.90649 888.24933 4278190080
564.1311 326.48056 480.24942 4278190080
948.39398 665.28125 967.65619 4278190080
338.08142 514.00055 471.04285 4278190080
598.01294 31.007736 698.37231 4278190080
684.3399 281.58176 505.44092 4278190080
895.40393 600.10834 197.58691 4278190080
252.04753 82.143707 92.717278 4278190080
989.0047 409.24689 527.06281 4278190080
912.1015 914.30725 834.72437 4278190080
458.24197 938.98083 683.63086 4278190080
322.49127 479.11191 1010.1114 4278190080
802.74066 403.50592 651.3927 4278190080
746.39685 741.58734 141.39323 4278190080
193.43971 315.60028 172.40097 4278190080
891.81207 999.94019 453.98273 4278190080
373.25296 871.34412 30.091059 4278190080
570.83984 99.391647 112.23476 4278190080
663.55713 64.39637 521.48163 4278190080
166.61996 976.49786 411.78891 4278190080
1001.3443 410.73984 326.76974 4278190080
660.97516 733.23114 805.88165 4278190080
647.08655 511.9718 185.38759 4278190080
274.47922 234.36868 926.97491 4278190080
415.87247 427.80838 218.5752 4278190080
588.27344 295.62045 194.51538 4278190080
18.256174 668.87341 41.859486 4278190080
48.347233 215.71329 141.25113 4278190080
160.582 879.27045 205.64751 4278190080
682.06366 21.89039 158.14537 4278190080
69.852554 1023.2347 568.88519 4278190080
396.62231 660.20984 278.11633 4278190080
178.50397 283.29639 790.08813 4278190080
363.89154 557.77563 0.45679522 4278190080
266.86649 973.64807 428.2652 4278190080
485.44165 537.92151 723.88562 4278190080
679.95703 556.17767 368.75903 4278190080
721.81653 604.5249 584.47229 4278190080
863.06763 765.10693 439.74274 4278190080
44.715157 423.17056 461.63315 4278190080
202.86053 493.0231 460.86783 4278190080
771.74573 889.64539 97.077682 4278190080
25.862055 44.149376 380.37405 4278190080
815.9502 408.04092 938.14966 4278190080
816.40698 674.90741 887.79773 4278190080
220.67215 136.34906 401.71927 4278190080
944.5578 816.30609 957.89697 4278190080
289.31683 514.12262 538.42188 4278190080
873.78912 353.19028 279.52881 4278190080
289.53189 397.90543 702.69934 4278190080
751.16504 600.76599 171.72247 4278190080
188.03287 348.51169 37.367889 4278190080
285.11053 374.37375 81.517265 4278190080
665.48462 166.32393 489.5582 4278190080
579.63428 982.7309 140.46558 4278190080
443.43204 179.40306 276.81464 4278190080
845.15131 99.960838 69.120735 4278190080
779.04828 389.27765 583.24335 4278190080
293.47015 239.0668 936.43365 4278190080
572.99896 528.59869 310.33908 4278190080
251.69835 255.7637 911.10504 4278190080
423.42081 443.79657 235.61674 4278190080
460.7887 728.9071 609.99048 4278190080
542.30597 370.39172 776.31445 4278190080
7.8641586 950.026 735.04535 4278190080
148.32974 369.45804 914.44836 4278190080
425.14438 190.60936 1014.4092 4278190080
494.26511 969.65765 379.68689 4278190080
53.508469 239.12781 618.75366 4278190080
989.94214 812.12677 123.35237 4278190080
276.28119 39.82513 379.11609 4278190080
163.38625 463.24594 822.91266 4278190080
399.00299 924.03467 527.81976 4278190080
1008.9935 442.34064 898.21149 4278190080
761.30792 450.2048 824.23749 4278190080
472.35327 598.53455 169.69551 4278190080
362.80167 1023.6789 360.30487 4278190080
353.21091 493.944 305.96252 4278190080
732.89777 547.45245 545.09033 4278190080
327.65149 513.39459 333.21713 4278190080
451.00385 789.67578 373.04227 4278190080
830.11993 953.06201 836.28821 4278190080
629.03259 328.06503 736.32288 4278190080
132.85234 313.05853 154.66351 4278190080
7.0638118 50.366463 604.86829 4278190080
831.30127 522.71973 179.40283 4278190080
1000.9968 885.52142 179.08174 4278190080
337.30167 214.73233 673.02576 4278190080
643.26422 947.63013 196.47824 4278190080
164.35454 251.2816 709.8728 4278190080
497.57166 702.28546 475.54861 4278190080
870.61395 508.4054 404.61063 4278190080
682.90216 113.43797 732.67566 4278190080
395.22501 246.29031 21.73418 4278190080
549.88849 253.35413 72.100639 4278190080
130.75682 60.655411 594.82037 4278190080
310.15964 37.65221 456.3418 4278190080
489.24139 374.95389 671.0741 4278190080
138.26714 1018.2181 594.70422 4278190080
334.74536 158.57263 845.98584 4278190080
20.618198 656.14429 524.2713 4278190080
496.16681 502.75821 8.6766968 4278190080
900.77747 161.66035 122.11467 4278190080
609.45312 556.88538 368.40497 4278190080
631.18732 82.773872 621.75909 4278190080
703.28796 213.53069 682.41449 4278190080
274.10831 523.69031 720.06671 4278190080
730.45013 1012.9317 71.020622 4278190080
377.52423 127.19885 65.238716 4278190080
972.22852 461.94421 223.81134 4278190080
794.21436 482.56241 879.95563 4278190080
294.48563 978.72925 358.71387 4278190080
303.16232 855.50671 520.37421 4278190080
425.27701 440.95981 53.25959 4278190080
793.68201 48.147099 136.03346 4278190080
391.4411 751.43506 349.56415 4278190080
49.855614 1.5433564 873.25446 4278190080
769.92236 731.99347 862.18622 4278190080
840.94293 85.517723 989.38507 4278190080
906.1817 33.746208 427.32928 4278190080
105.99302 827.96057 909.89172 4278190080
985.94867 98.446182 864.62091 4278190080
320.66254 401.60852 696.12762 4278190080
841.03674 826.8855 113.08743 4278190080
894.29633 596.5675 161.23453 4278190080
6.3298163 988.00861 912.66956 4278190080
355.89395 13.864218 914.21289 4278190080
205.14844 783.78656 622.20642 4278190080
43.334641 600.72949 707.72412 4278190080
8.7196922 482.91119 741.47034 4278190080
436.04898 588.90424 545.43085 4278190080
321.94067 550.85291 643.87708 4278190080
162.5616 871.51544 21.485571 4278190080
858.68921 688.55219 848.37109 4278190080
971.77667 558.84857 420.9386 4278190080
109.01117 565.17834 384.9472 4278190080
1021.6807 921.07233 398.81143 4278190080
911.89368 102.22076 158.59798 4278190080
510.10004 145.5554 759.32751 4278190080
193.82417 154.2751 218.23869 4278190080
935.29449 590.3241 807.14288 4278190080
456.72537 912.26471 333.99579 4278190080
76.602432 50.826324 181.5112 4278190080
98.087997 909.51556 870.06342 4278190080
946.45911 857.29218 404.91193 4278190080
343.39771 966.30334 970.09027 4278190080
728.34491 963.98407 867.1626 4278190080
103.15633 851.87775 969.38336 4278190080
261.7543 337.97778 90.938789 4278190080
1021.0818 531.80194 245.2139 4278190080
215.3205 443.09647 835.53796 4278190080
1022.4634 899.82184 723.80267 4278190080
332.4592 976.42426 774.62903 4278190080
513.9704 50.512272 660.14453 4278190080
360.03378 996.97137 493.43674 4278190080
764.94574 316.36905 435.74008 4278190080
711.03601 20.713966 375.72418 4278190080
554.19861 123.87029 203.60193 4278190080
499.582 385.6246 541.57971 4278190080
590.52081 382.70642 49.381683 4278190080
835.73468 598.02692 492.47815 4278190080
647.27264 596.4903 368.29999 4278190080
347.07535 928.94952 320.72427 4278190080
97.704361 418.91989 371.23654 4278190080
757.84894 778.95367 344.20792 4278190080
227.28564 519.89941 660.57697 4278190080
663.02576 206.93541 681.29095 4278190080
14.749921 761.13403 805.16125 4278190080
218.35184 236.71605 166.78583 4278190080
759.93158 827.23688 549.49225 4278190080
809.31323 638.97156 123.51916 4278190080
277.79141 262.2442 720.00946 4278190080
646.09137 609.31958 624.95898 4278190080
966.81567 707.02393 19.878885 4278190080
314.05222 440.87283 798.83258 4278190080
658.26013 668.15851 294.73196 4278190080
294.83707 307.1842 501.66739 4278190080
976.12799 321.93414 238.80142 4278190080
757.28925 540.28601 475.51749 4278190080
924.07507 276.21753 278.75433 4278190080
449.56732 61.530788 917.72589 4278190080
573.08649 339.32217 155.97011 4278190080
269.09595 985.41357 765.28967 4278190080
894.05493 928.22925 448.31357 4278190080
913.93384 218.28145 889.1864 4278190080
688.76642 876.54156 533.34491 4278190080
983.49835 147.37863 840.52911 4278190080
461.16574 99.506638 138.46324 4278190080
699.96716 856.7959 678.74921 4278190080
151.48466 756.87097 954.9668 4278190080
430.23901 182.43826 1016.4976 4278190080
323.9649 755.52472 331.81976 4278190080
479.935 0.62067842 293.23334 4278190080
221.22467 894.6756 197.46257 4278190080
669.53827 784.60944 415.74402 4278190080
534.72467 449.37582 268.28555 4278190080
44.069538 408.87418 415.66418 4278190080
884.59863 870.03992 515.17084 4278190080
1023.0619 546.00714 347.96671 4278190080
677.8111 697.49176 80.837654 4278190080
608.77789 103.73078 263.27591 4278190080
601.27545 427.69568 1018.8007 4278190080
933.09521 907.63068 1019.4213 4278190080
202.32852 104.85535 890.09692 4278190080
399.79111 774.39362 650.70636 4278190080
815.5351 285.11826 76.082191 4278190080
59.820679 329.18777 484.95639 4278190080
475.48486 189.78642 330.99631 4278190080
990.6557 188.84831 877.00342 4278190080
314.62241 866.65942 550.49518 4278190080
395.46008 451.43732 654.22595 4278190080
658.73596 28.712759 57.921661 4278190080
653.53662 961.80798 965.55237 4278190080
648.95795 140.13647 46.407696 4278190080
515.05487 539.92755 820.80127 4278190080
141.76125 331.46268 81.91954 4278190080
217.84343 391.28336 411.10733 4278190080
702.7998 866.76825 600.89374 4278190080
9.7961254 833.42395 789.74207 4278190080
886.79956 124.04636 632.40149 4278190080
413.29477 519.50641 59.838806 4278190080
43.520737 154.24242 88.551567 4278190080
101.4424 807.77905 26.35952 4278190080
42.994747 432.73697 166.496 4278190080
89.402443 947.79187 706.42358 4278190080
910.20374 65.553101 13.886273 4278190080
992.12329 283.39655 405.16965 4278190080
379.23062 986.19635 247.93788 4278190080
980.12439 995.99249 57.361832 4278190080
745.86646 858.79205 181.40819 4278190080
354.26791 248.08679 700.91461 4278190080
414.10672 291.60751 855.15704 4278190080
502.65829 393.04993 638.9361 4278190080
529.01782 436.04468 47.673058 4278190080
695.51379 525.44714 995.4649 4278190080
377.93741 411.65085 37.018021 4278190080
391.82367 379.77414 320.41455 4278190080
796.99329 759.00476 282.6109 4278190080
20.931198 715.12909 254.60339 4278190080
78.29303 436.99551 89.395416 4278190080
259.70123 791.26343 337.48221 4278190080
960.61584 181.37018 629.08972 4278190080
791.77289 684.02844 1022.1396 4278190080
406.70898 189.04628 434.18433 4278190080
454.38202 884.56012 959.63141 4278190080
425.84695 238.49748 347.28229 4278190080
462.86496 630.32117 727.0564 4278190080
783.27954 403.31448 462.06116 4278190080
41.890438 424.24567 153.19025 4278190080
296.49384 502.5387 590.18579 4278190080
385.88925 762.23993 357.44922 4278190080
723.37146 698.85577 538.8194 4278190080
328.46118 466.62866 198.84787 4278190080
326.60083 873.33765 387.89417 4278190080
760.78516 303.71967 248.45425 4278190080
696.41656 729.56659 486.95172 4278190080
19.698872 168.43159 93.272896 4278190080
746.75531 951.71112 496.58737 4278190080
184.81644 993.60156 920.83301 4278190080
338.00668 266.0954 399.37173 4278190080
928.1925 651.98462 137.61166 4278190080
261.64169 351.35608 836.46747 4278190080
800.46112 679.81726 279.0961 4278190080
999.30896 1006.4181 128.43375 4278190080
363.20312 743.20325 432.15341 4278190080
611.65741 415.61981 137.72005 4278190080
74.609123 435.3187 306.15164 4278190080
167.88202 158.07397 233.86275 4278190080
664.46936 342.89041 203.46431 4278190080
561.30243 680.89709 469.55969 4278190080
960.67413 585.0896 97.544312 4278190080
74.28582 846.73132 448.90039 4278190080
910.75323 623.19238 104.71764 4278190080
165.84937 598.5014 87.135712 4278190080
294.28311 961.70453 830.33893 4278190080
726.43652 549.36194 221.95874 4278190080
864.15656 623.97107 657.2774 4278190080
146.30821 791.85309 815.35138 4278190080
380.17096 432.32245 134.24181 4278190080
583.63525 993.62488 815.13892 4278190080
29.19495 930.29901 376.22852 4278190080
126.73927 1004.5848 198.95981 4278190080
575.63965 891.33813 822.15222 4278190080
680.3573 33.187485 396.65363 4278190080
767.49298 327.47061 334.35815 4278190080
573.83197 29.907146 883.72009 4278190080
795.79071 894.06372 483.6911 4278190080
429.06812 16.371941 251.54417 4278190080
220.41951 396.54291 683.86664 4278190080
354.66132 980.17816 653.49152 4278190080
145.80025 1009.3731 559.79053 4278190080
522.02875 112.11238 540.37537 4278190080
720.98859 687.75201 407.71347 4278190080
519.14081 344.10934 440.90097 4278190080
915.79437 87.602341 768.37158 4278190080
226.15254 661.43427 798.27869 4278190080
85.872612 433.22498 668.34247 4278190080
569.56372 862.29309 684.71436 4278190080
821.10791 58.712608 57.257282 4278190080
480.97452 413.37393 13.435446 4278190080
110.466 559.17419 1022.8085 4278190080
670.25653 57.20295 110.92094 4278190080
186.63188 778.19153 798.67297 4278190080
594.34534 273.33231 118.78231 4278190080
11.246317 165.12671 206.38466 4278190080
779.61786 391.27927 867.81891 4278190080
553.89661 477.15186 277.04391 4278190080
198.23904 22.715588 115.33701 4278190080
882.95343 843.82349 174.04961 4278190080
940.21069 300.79797 587.42352 4278190080
953.64618 411.26398 122.59773 4278190080
952.45471 57.520485 179.80067 4278190080
39.375656 244.15236 957.99219 4278190080
838.04865 838.49774 207.32451 4278190080
956.83093 849.74402 372.45123 4278190080
139.21561 605.36194 763.73047 4278190080
1007.0345 135.25851 216.88235 4278190080
260.07846 333.49756 239.59795 4278190080
375.41547 192.45097 59.421425 4278190080
549.46509 108.66168 360.21942 4278190080
112.88861 38.307835 771.4834 4278190080
235.48634 990.76257 829.00385 4278190080
415.28702 6.1382031 49.156231 4278190080
349.27924 844.18683 887.65393 4278190080
556.60376 777.01776 713.39795 4278190080
929.05499 916.2334 294.75989 4278190080
668.78546 899.26794 430.0184 4278190080
885.66779 135.34639 763.51599 4278190080
101.26576 510.76184 955.96692 4278190080
160.68718 36.226906 40.62862 4278190080
520.90662 149.11551 78.936455 4278190080
268.38998 384.60187 45.698997 4278190080
73.393852 799.88885 51.837204 4278190080
122.55008 125.1681 896.02405 4278190080
1010.204 681.77185 649.04181 4278190080
699.60199 586.82678 541.27521 4278190080
994.36188 231.61226 416.54315 4278190080
400.38031 93.280075 551.88953 4278190080
139.89626 194.54584 38.651375 4278190080
71.863197 355.23303 74.878281 4278190080
112.49182 876.13959 223.99379 4278190080
191.42827 120.52959 608.59564 4278190080
237.12727 193.92345 384.48453 4278190080
288.96448 316.47351 509.65262 4278190080
160.98851 302.67755 167.42445 4278190080
810.03033 1002.2795 754.25128 4278190080
327.30557 972.64142 985.86353 4278190080
743.84869 349.02176 55.143597 4278190080
271.73825 488.918 249.68944 4278190080
310.38965 560.78119 604.92242 4278190080
385.26791 673.27301 457.06207 4278190080
609.26172 864.70129 577.59167 4278190080
193.85736 77.828568 771.51508 4278190080
578.34186 366.79303 63.988621 4278190080
63.994507 527.78156 366.66617 4278190080
231.41896 313.81189 344.94571 4278190080
985.67023 641.11749 293.58716 4278190080
947.53375 360.96619 642.60889 4278190080
1002.6774 632.70447 107.52691 4278190080
228.36678 943.09406 668.30811 4278190080
833.28925 304.362 317.58115 4278190080
266.35129 913.62372 158.28244 4278190080
843.94293 83.481079 236.11099 4278190080
591.45807 661.82294 602.90405 4278190080
655.44666 725.81744 106.68559 4278190080
1022.1129 957.23645 420.49747 4278190080
343.05853 918.90668 37.614937 4278190080
636.64569 842.44037 398.58112 4278190080
255.25459 821.11774 7.2855725 4278190080
362.78149 25.484505 950.37964 4278190080
7.0896201 858.77374 230.74165 4278190080
324.67075 101.12502 120.36537 4278190080
482.95319 945.06799 203.84645 4278190080
719.06421 512.526 865.66943 4278190080
297.96823 143.97267 567.48688 4278190080
404.65381 142.08549 500.7233 4278190080
825.15131 485.14404 395.62994 4278190080
862.76624 97.789742 214.07034 4278190080
237.34735 353.04434 11.188077 4278190080
244.63292 715.82587 36.672581 4278190080
171.01257 722.91547 895.44629 4278190080
401.75424 23.586226 996.57135 4278190080
522.11963 506.53943 917.63928 4278190080
725.96606 201.60361 406.16531 4278190080
567.63544 499.57184 550.138 4278190080
111.12234 904.22565 692.22345 4278190080
611.84564 705.37689 153.36752 4278190080
1007.4756 544.14313 251.15726 4278190080
197.54593 781.49048 604.2016 4278190080
208.73401 2.1233926 296.02744 4278190080
245.40659 173.13597 1018.9429 4278190080
116.8529 574.8902 18.529137 4278190080
89.424232 73.009804 525.06854 4278190080
1007.0635 798.97583 726.67218 4278190080
389.22882 342.61133 202.24399 4278190080
939.36682 453.73364 82.46962 4278190080
607.59027 41.579288 787.84656 4278190080
760.95776 25.054873 307.98965 4278190080
1012.1151 222.6008 65.480141 4278190080
592.31665 431.33481 67.603531 4278190080
888.34412 676.74139 240.7395 4278190080
883.28699 793.5943 815.6297 4278190080
901.81616 883.01855 888.63953 4278190080
402.88467 866.08203 663.61536 4278190080
105.55685 231.31087 1006.2267 4278190080
307.80084 146.67767 435.96033 4278190080
390.27045 754.26794 477.53961 4278190080
154.11699 491.22574 502.59448 4278190080
462.10666 479.34079 725.19531 4278190080
527.58679 47.657421 132.53009 4278190080
595.19031 936.00153 809.27148 4278190080
835.92981 795.28851 578.86578 4278190080
627.55951 673.10461 437.88431 4278190080
492.19901 51.989334 279.96637 4278190080
131.81438 157.54617 511.27725 4278190080
114.04105 465.34702 657.9549 4278190080
550.00134 855.61749 388.22287 4278190080
3.5409803 1009.7344 879.44861 4278190080
506.13547 447.84109 334.78937 4278190080
207.33075 975.42792 382.44678 4278190080
339.86084 546.61823 294.4483 4278190080
125.13234 358.54803 65.736801 4278190080
703.99811 986.10754 738.84143 4278190080
117.88245 454.30655 790.83075 4278190080
397.84882 586.12091 948.37695 4278190080
909.12604 700.16199 389.72397 4278190080
543.08099 226.16335 221.34145 4278190080
931.30383 229.70433 207.0759 4278190080
786.75244 735.83978 654.91699 4278190080
97.541786 943.17053 606.34491 4278190080
479.98859 259.0314 128.9631 4278190080
774.43689 384.16373 487.51114 4278190080
840.17365 64.161865 449.61868 4278190080
555.01514 182.04431 903.92523 4278190080
321.84589 579.89313 466.04617 4278190080
246.22285 465.0192 142.20816 4278190080
635.94684 1008.1002 368.37152 4278190080
857.28827 915.40399 598.07581 4278190080
40.364174 678.15643 309.91562 4278190080
695.28119 775.69824 229.08617 4278190080
277.62607 231.68678 488.11755 4278190080
406.5892 1006.1237 872.28131 4278190080
894.10034 822.2973 936.44318 4278190080
319.71902 353.31244 94.487465 4278190080
199.64427 675.15833 674.38062 4278190080
665.69043 921.38116 115.39979 4278190080
807.89862 533.328 99.499962 4278190080
152.27013 366.61627 1014.904 4278190080
750.34595 406.98044 669.06036 4278190080
36.261585 78.261635 420.75861 4278190080
265.34775 355.88773 652.44537 4278190080
753.46533 762.47693 634.56903 4278190080
601.74658 632.57727 432.86636 4278190080
514.18976 952.29626 786.17877 4278190080
608.67725 127.94054 437.33713 4278190080
259.05783 793.63098 334.71829 4278190080
374.45761 577.5296 868.04633 4278190080
473.95758 729.79974 210.66257 4278190080
464.86154 456.14569 617.64301 4278190080
109.92193 492.40729 695.90466 4278190080
530.68054 757.75507 27.792374 4278190080
159.12593 487.22037 790.26929 4278190080
793.69495 64.966965 398.84653 4278190080
202.56134 579.15674 327.14279 4278190080
988.74011 163.83395 455.08331 4278190080
402.07724 422.89178 224.71431 4278190080
736.79553 797.34943 802.2439 4278190080
580.84186 247.30698 508.04367 4278190080
791.50439 712.16852 964.18933 4278190080
385.14743 822.09045 432.59662 4278190080
57.052101 328.77097 166.35167 4278190080
84.844475 487.89688 653.57202 4278190080
875.11377 257.59186 718.539 4278190080
249.96028 460.1532 273.69571 4278190080
577.10309 424.89334 437.52966 4278190080
8.186388 826.97058 860.42145 4278190080
232.90071 539.76611 633.77087 4278190080
11.144631 96.607979 881.07782 4278190080
519.18829 888.11243 569.24634 4278190080
459.37766 249.25984 367.33676 4278190080
891.9743 306.31195 696.10773 4278190080
34.325943 391.15643 160.00462 4278190080
687.89795 242.27017 417.5965 4278190080
382.43695 492.23044 877.74969 4278190080
656.13269 45.333515 278.64301 4278190080
69.662354 53.519905 81.613609 4278190080
930.0838 286.42062 621.37976 4278190080
539.85468 297.56525 717.98773 4278190080
396.9325 816.75354 582.1001 4278190080
966.17883 252.13118 831.35999 4278190080
309.51559 120.10545 113.67191 4278190080
1005.6234 154.4314 504.82834 4278190080
141.62794 842.32935 747.09851 4278190080
559.22443 200.76633 215.32896 4278190080
412.97412 856.89899 260.66248 4278190080
691.61713 926.56134 314.18237 4278190080
773.23077 832.64514 600.60297 4278190080
370.61047 348.49985 898.16821 4278190080
64.598213 745.43231 690.92175 4278190080
646.69836 687.61115 943.05292 4278190080
454.05832 997.12677 39.158394 4278190080
567.73022 978.75012 193.5898 4278190080
48.558552 96.378036 11.919156 4278190080
795.65704 655.60248 212.68549 4278190080
1010.986 44.57658 45.584476 4278190080
247.6485 736.19373 972.14581 4278190080
561.83087 485.42447 780.79102 4278190080
138.43388 856.03497 105.29084 4278190080
12.602118 920.63318 850.72321 4278190080
703.52386 543.33148 514.33435 4278190080
622.57684 997.38983 487.46112 4278190080
661.73523 541.12 442.21121 4278190080
855.32501 589.67859 538.58923 4278190080
867.2442 361.33563 170.19171 4278190080
55.929649 348.32166 214.7683 4278190080
101.51413 595.97015 950.96204 4278190080
49.659962 133.80106 412.38647 4278190080
830.45099 272.23492 244.42142 4278190080
935.74182 284.83704 141.05458 4278190080
762.46497 988.36096 684.38611 4278190080
252.79933 586.93774 657.77588 4278190080
740.26044 224.67299 174.8959 4278190080
158.47166 55.998005 764.57446 4278190080
697.06091 923.24219 101.91013 4278190080
867.25262 979.17181 450.23178 4278190080
58.020924 56.685959 22.201948 4278190080
1008.9829 106.34592 156.00301 4278190080
397.36942 936.79688 428.23795 4278190080
641.79083 848.5387 713.07501 4278190080
782.8454 587.00366 677.43591 4278190080
443.23151 839.80298 240.37369 4278190080
77.007385 556.06348 465.04666 4278190080
251.90329 714.5351 521.04468 4278190080
1016.4778 387.59604 420.28687 4278190080
94.387909 230.84865 375.45868 4278190080
544.61969 288.86957 432.14465 4278190080
566.82166 273.85251 538.49054 4278190080
722.82465 671.22192 451.28745 4278190080
127.06257 289.01276 275.82611 4278190080
840.13757 47.858158 862.82977 4278190080
493.57349 491.08966 678.63275 4278190080
733.94714 568.09705 210.69623 4278190080
174.99384 820.00031 925.23132 4278190080
696.03851 812.47809 288.82736 4278190080
92.325363 906.86603 519.67603 4278190080
467.78406 427.48572 808.54559 4278190080
899.92871 994.30737 58.398106 4278190080
414.41925 693.13196 729.62 4278190080
865.70673 820.19458 1018.6328 4278190080
117.53283 636.33209 42.490929 4278190080
980.36261 105.90558 533.58057 4278190080
634.99536 839.85272 77.677612 4278190080
845.69159 1014.8466 897.67792 4278190080
746.92297 686.88507 686.15607 4278190080
11.750319 779.21045 569.02209 4278190080
531.42633 222.99449 996.50775 4278190080
315.97192 98.92318 966.81512 4278190080
374.37003 513.34247 635.94708 4278190080
79.990059 355.04916 432.14163 4278190080
74.622826 472.58197 44.473747 4278190080
117.11375 428.94458 150.37932 4278190080
650.69434 39.939983 990.23206 4278190080
728.37195 885.63159 981.07861 4278190080
602.04987 608.55457 643.96368 4278190080
264.20593 620.30487 399.1741 4278190080
833.22803 127.73121 622.16858 4278190080
805.73578 443.70312 721.0918 4278190080
748.5509 818.07318 210.43423 4278190080
360.49799 898.06323 565.4834 4278190080
792.63965 972.68604 14.065353 4278190080
837.1134 65.799812 443.00995 4278190080
987.49268 716.49414 482.94992 4278190080
953.72473 420.86609 344.58154 4278190080
910.80334 1022.916 953.13611 4278190080
530.76703 263.12192 549.44098 4278190080
929.94116 72.349937 677.17218 4278190080
528.10974 878.08569 96.875298 4278190080
225.20154 602.6366 914.94849 4278190080
435.63577 963.13458 789.01172 4278190080
1001.1191 731.77423 737.69775 4278190080
1015.1845 544.88757 803.49756 4278190080
434.19443 508.38028 495.9917 4278190080
917.14435 438.10504 916.85779 4278190080
237.72589 324.90839 915.7738 4278190080
166.86198 855.67542 154.89574 4278190080
716.30292 761.61658 227.24567 4278190080
369.4751 265.72635 81.331383 4278190080
466.3504 490.92789 683.96802 4278190080
357.29886 926.56366 623.1026 4278190080
122.31056 903.6828 330.8768 4278190080
860.0083 894.86731 875.7644 4278190080
639.50586 305.06174 360.14468 4278190080
111.4976 198.2061 798.24969 4278190080
4.3554068 435.93201 99.158112 4278190080
920.12921 602.79401 954.83356 4278190080
51.024937 295.09692 692.45013 4278190080
278.2706 664.57202 958.17651 4278190080
359.60199 106.92242 425.10437 4278190080
19.569981 464.22128 327.66803 4278190080
642.67255 586.53186 207.35081 4278190080
973.54938 422.54016 78.218109 4278190080
825.31378 38.046055 383.27985 4278190080
161.45844 149.54366 581.48596 4278190080
959.70813 153.89906 1017.418 4278190080
34.866261 50.028267 596.21191 4278190080
989.69983 101.0532 891.30884 4278190080
658.14996 379.32379 531.88086 4278190080
592.32642 738.92578 638.80328 4278190080
1017.4308 758.49579 79.024582 4278190080
321.09882 377.16833 665.55646 4278190080
528.44965 326.71771 64.096611 4278190080
606.66779 128.03146 102.14266 4278190080
989.94763 289.4899 251.68631 4278190080
547.43353 225.19804 405.58539 4278190080
540.8515 260.0643 455.61365 4278190080
113.06345 225.76411 556.66687 4278190080
1004.3723 883.91406 935.99066 4278190080
512.25317 452.24048 650.91644 4278190080
127.05647 445.6713 385.41223 4278190080
206.08104 766.77014 762.58057 4278190080
871.63745 271.21976 65.298256 4278190080
935.73407 877.88751 193.32971 4278190080
13.876751 843.83514 482.81961 4278190080
265.56308 367.26868 708.01764 4278190080
671.14844 908.12018 968.08197 4278190080
102.76208 1021.1837 169.84607 4278190080
659.42896 1001.5559 29.760134 4278190080
571.41956 489.80911 482.00061 4278190080
198.33601 616.8656 927.67194 4278190080
583.74823 822.94659 670.44202 4278190080
322.3288 670.58411 941.6618 4278190080
387.62704 582.31818 795.54932 4278190080
580.95679 596.19495 615.38446 4278190080
39.776382 861.758 982.65314 4278190080
747.79401 508.90643 866.77332 4278190080
691.87598 611.66852 863.95697 4278190080
861.72205 247.09744 841.51288 4278190080
891.48218 818.51703 307.32199 4278190080
349.48282 1016.853 924.18756 4278190080
253.15474 576.60126 723.13416 4278190080
923.5968 898.93005 369.71829 4278190080
841.25854 262.55713 952.03644 4278190080
612.80786 843.51392 524.23138 4278190080
204.19232 883.29028 361.98941 4278190080
162.84543 607.08435 870.89581 4278190080
5.618742 274.96033 458.56436 4278190080
869.57568 112.68239 705.6618 4278190080
687.08856 1004.1646 500.17883 4278190080
994.41058 329.64743 493.03189 4278190080
894.59814 582.80219 45.63316 4278190080
593.7323 482.39893 944.56323 4278190080
963.45056 299.6575 183.12038 4278190080
891.48706 912.46539 2.634294 4278190080
391.71844 92.6577 885.92456 4278190080
753.70782 255.50314 469.00891 4278190080
600.6037 261.12189 743.96924 4278190080
35.168045 106.69756 856.65161 4278190080
740.82983 793.78613 836.81622 4278190080
217.0087 764.19672 142.46364 4278190080
710.04059 634.7948 725.26581 4278190080
755.67371 204.5271 183.66473 4278190080
676.237 143.97769 483.32224 4278190080
859.35736 11.464729 371.78763 4278190080
861.99164 403.18317 464.44531 4278190080
723.91626 132.89101 719.94849 4278190080
168.92516 733.49469 981.07031 4278190080
912.89441 768.66272 63.767902 4278190080
745.54602 485.49258 857.55402 4278190080
558.36224 702.50128 597.75073 4278190080
700.82587 388.54184 208.54553 4278190080
402.09164 120.21558 413.07263 4278190080
585.75641 796.45258 557.05029 4278190080
45.078613 631.80994 568.51508 4278190080
416.86624 469.80154 971.69824 4278190080
881.31152 169.71779 80.589233 4278190080
577.26001 338.64294 814.08392 4278190080
534.33032 227.53734 558.74664 4278190080
598.09827 973.08337 20.239246 4278190080
431.65228 507.44559 722.74054 4278190080
5.4030013 184.27144 87.282379 4278190080
213.94853 586.3631 207.49796 4278190080
627.02118 148.11948 1003.9505 4278190080
160.07149 193.19809 611.76044 4278190080
728.58655 610.06433 57.561981 4278190080
676.28479 467.37585 227.27977 4278190080
756.87402 20.63586 565.92273 4278190080
546.95789 554.96619 793.46008 4278190080
81.704567 129.06444 742.5434 4278190080
101.94382 560.71674 225.98897 4278190080
824.68433 566.11975 410.26041 4278190080
911.96674 780.06824 996.62347 4278190080
95.464684 383.08942 120.74297 4278190080
75.415199 543.16089 313.94104 4278190080
687.1756 247.74745 924.00537 4278190080
744.73761 924.03223 367.38123 4278190080
972.0174 656.90619 388.01709 4278190080
513.94012 179.86412 942.98328 4278190080
283.40015 261.5687 48.047729 4278190080
1.9435592 363.51251 608.76447 4278190080
227.93253 164.19684 150.88417 4278190080
638.19293 52.163567 930.95245 4278190080
610.81647 147.62825 290.04184 4278190080
731.55939 223.04344 833.20276 4278190080
21.500462 910.21906 56.950211 4278190080
945.5058 630.95667 980.98242 4278190080
288.88705 578.97406 613.88861 4278190080
676.90411 68.914146 793.75275 4278190080
595.88745 352.3143 31.32143 4278190080
643.93518 354.25787 394.83392 4278190080
228.6996 582.19037 559.03076 4278190080
379.58377 196.38335 611.19434 4278190080
286.53622 807.19977 758.82257 4278190080
576.57806 514.75916 981.86603 4278190080
385.78082 536.25964 868.08508 4278190080
442.73102 457.76547 475.04178 4278190080
399.71344 746.65253 30.015814 4278190080
1013.6021 399.55667 98.929962 4278190080
783.3548 995.44409 451.24426 4278190080
814.67627 615.37921 805.50214 4278190080
185.51018 844.07886 363.69254 4278190080
744.54095 199.66263 560.07587 4278190080
331.73529 486.19885 343.27563 4278190080
66.557892 38.776909 858.03485 4278190080
24.423929 424.55774 370.29449 4278190080
892.50903 867.28876 828.05994 4278190080
343.55081 243.00221 550.71246 4278190080
373.56662 232.60429 950.26917 4278190080
472.49658 1015.9591 921.7132 4278190080
923.74084 806.63538 513.09247 4278190080
705.24298 992.14557 333.17133 4278190080
44.935509 712.68652 532.83392 4278190080
605.01135 20.421795 1019.0328 4278190080
948.28705 86.979691 33.809692 4278190080
782.32184 111.40362 458.36743 4278190080
128.61635 1003.9127 301.65619 4278190080
956.67627 323.46344 544.65839 4278190080
483.38876 697.03009 777.2627 4278190080
409.6579 145.52664 769.2218 4278190080
307.37112 45.267483 551.85718 4278190080
820.46362 750.51044 520.00269 4278190080
129.6349 795.44598 208.68921 4278190080
662.46887 376.45734 229.11099 4278190080
657.50165 300.74438 316.0907 4278190080
691.31134 59.066242 427.49429 4278190080
125.67875 187.68259 407.40695 4278190080
427.33493 120.35888 730.87042 4278190080
971.99335 603.74768 403.90045 4278190080
725.25604 1013.4056 549.42712 4278190080
470.47787 296.7767 594.69458 4278190080
1022.335 93.240288 321.20505 4278190080
518.33777 222.8752 92.651016 4278190080
727.02692 885.34406 469.10837 4278190080
956.13794 518.8457 769.85272 4278190080
248.22864 186.157 828.91901 4278190080
675.72296 311.83575 1016.6016 4278190080
59.12989 739.17072 112.96046 4278190080
790.00031 687.16406 716.70813 4278190080
169.90076 388.4201 706.11365 4278190080
719.32788 858.89795 1002.8904 4278190080
290.02246 857.23297 72.130653 4278190080
611.22748 351.57074 295.00586 4278190080
703.87854 54.597668 156.3499 4278190080
148.98689 1010.7356 675.19556 4278190080
918.83966 234.96425 861.35254 4278190080
723.75867 910.68719 149.18832 4278190080
716.36023 969.81708 888.35901 4278190080
829.32068 735.81738 551.52307 4278190080
522.02881 905.71814 939.94318 4278190080
204.14247 601.04596 774.84113 4278190080
183.03284 891.06842 608.0741 4278190080
255.1635 478.29593 959.64484 4278190080
550.16937 158.17445 1014.2425 4278190080
706.51923 307.16135 1000.9781 4278190080
357.71481 202.00099 211.94235 4278190080
195.06738 925.75964 98.629539 4278190080
344.25571 618.11981 44.446609 4278190080
208.61472 423.44052 780.26398 4278190080
760.13782 945.4693 661.98212 4278190080
676.08093 125.61179 239.02808 4278190080
426.92209 308.64462 106.09652 4278190080
10.996187 563.80811 584.39246 4278190080
970.64105 89.97747 742.56689 4278190080
960.88354 796.4967 25.728252 4278190080
937.86163 130.21152 227.72923 4278190080
125.804 325.2789 129.48886 4278190080
224.43355 669.53461 747.6087 4278190080
268.88016 878.14929 147.04922 4278190080
25.144131 614.28711 68.518547 4278190080
687.12622 266.36804 194.13034 4278190080
926.1543 693.2901 502.77496 4278190080
8.2508297 704.28632 42.583096 4278190080
592.64331 650.92737 132.56056 4278190080
311.21021 587.81085 929.05725 4278190080
336.93845 501.67252 35.268791 4278190080
564.66766 627.4765 360.54767 4278190080
694.15656 851.9101 6.0822687 4278190080
417.76526 96.790222 884.23157 4278190080
564.81445 121.93436 474.51868 4278190080
633.33301 809.06061 740.88672 4278190080
827.46338 711.2149 410.17685 4278190080
306.23834 719.4657 90.463173 4278190080
348.82144 288.10901 741.3905 4278190080
481.38199 599.31921 305.20139 4278190080
386.43927 936.25763 806.8739 4278190080
421.70807 476.92532 410.35043 4278190080
782.25574 147.08186 238.26048 4278190080
788.33801 564.84711 335.05072 4278190080
648.56958 105.6616 456.98508 4278190080
99.088257 738.99463 242.04565 4278190080
839.97498 542.45801 953.26056 4278190080
226.15184 848.69635 648.72626 4278190080
316.61502 173.51775 936.83527 4278190080
34.005543 654.89972 512.15448 4278190080
339.20694 17.339016 424.41211 4278190080
122.08083 439.04709 901.3374 4278190080
532.43127 197.30281 24.419292 4278190080
770.69177 985.64081 589.26642 4278190080
81.742462 610.21039 694.92798 4278190080
538.72754 709.29865 409.92264 4278190080
780.77319 525.27368 952.38062 4278190080
710.03369 751.42548 777.07697 4278190080
334.75998 44.040527 950.59467 4278190080
247.59525 78.046066 581.49445 4278190080
759.74969 417.25299 598.83344 4278190080
160.1618 539.33386 13.880524 4278190080
37.499229 47.765095 211.18333 4278190080
61.918526 818.45685 172.82416 4278190080
651.18494 900.19928 783.03455 4278190080
322.11295 414.92682 468.33322 4278190080
732.03558 171.70001 993.60687 4278190080
660.4162 881.7337 721.03241 4278190080
413.49313 192.4937 765.07294 4278190080
340.0878 440.08893 843.11896 4278190080
921.58221 175.83864 236.37198 4278190080
496.41568 336.00046 775.70581 4278190080
510.2962 373.49969 823.47089 4278190080
721.47955 435.41821 617.92773 4278190080
894.30371 62.603138 494.12708 4278190080
653.33826 384.71606 909.05389 4278190080
97.671494 92.751648 56.753906 4278190080
67.278374 753.16785 938.48761 4278190080
788.31073 142.66095 106.98132 4278190080
529.38367 482.74875 547.07025 4278190080
348.50266 380.33099 722.90887 4278190080
584.87463 876.7467 34.909351 4278190080
336.58044 363.04291 408.40903 4278190080
136.05136 60.522449 843.82721 4278190080
753.97913 954.82617 906.43036 4278190080
224.10619 584.16443 267.14645 4278190080
109.16008 681.83594 359.8981 4278190080
165.91399 749.11432 89.065926 4278190080
80.401619 513.42505 231.72687 4278190080
187.38295 18.808716 714.47565 4278190080
734.45319 367.31137 70.806618 4278190080
433.36212 952.18597 947.55328 4278190080
468.27145 264.76645 286.59619 4278190080
876.68048 400.81781 347.11865 4278190080
696.50775 130.79691 277.94479 4278190080
578.93811 354.90311 862.10925 4278190080
846.08453 464.06317 519.94513 4278190080
181.98267 629.97717 245.05943 4278190080
271.04858 710.37878 758.4845 4278190080
502.77545 897.76172 777.29321 4278190080
193.25108 608.21497 120.60456 4278190080
264.05771 17.577053 48.790554 4278190080
187.61099 485.84851 313.55698 4278190080
474.20721 338.52902 714.37482 4278190080
821.32587 11.036743 845.17169 4278190080
75.270653 589.97485 176.0748 4278190080
937.37988 412.05942 640.138 4278190080
433.32501 594.04205 246.11514 4278190080
678.38446 865.09064 956.49396 4278190080
412.86893 343.86612 830.25568 4278190080
166.16212 537.11719 414.47061 4278190080
286.76669 801.17487 432.04767 4278190080
335.55725 988.78589 917.89618 4278190080
649.11426 438.9931 232.42519 4278190080
339.48901 236.31894 243.46193 4278190080
160.66072 311.5896 833.43677 4278190080
336.7355 224.96948 221.4962 4278190080
976.87347 658.29449 815.53827 4278190080
198.98863 312.67896 656.62897 4278190080
131.48257 725.54791 1000.4951 4278190080
961.73822 891.71002 513.61224 4278190080
352.20886 154.47672 290.78714 4278190080
784.25653 490.03394 255.57304 4278190080
678.15271 115.14818 694.56616 4278190080
910.57788 454.63718 930.88507 4278190080
130.03984 615.29791 218.47469 4278190080
963.47662 952.03345 443.44418 4278190080
160.97284 904.90692 77.738686 4278190080
976.51111 79.895538 390.41763 4278190080
609.14008 211.37811 91.965546 4278190080
585.63513 149.11635 983.67554 4278190080
75.247368 501.32523 114.15228 4278190080
366.03452 261.58176 604.18622 4278190080
621.60754 939.73444 719.33441 4278190080
292.17371 826.31238 149.97159 4278190080
199.05879 956.35223 765.26947 4278190080
417.53348 895.82886 693.30292 4278190080
860.97766 32.801678 574.20984 4278190080
938.71631 1009.3128 654.10535 4278190080
305.13397 594.45282 865.48346 4278190080
397.09952 156.08795 1014.5998 4278190080
356.77509 231.33533 491.92502 4278190080
470.92737 597.36981 753.50677 4278190080
51.11359 194.9774 669.24121 4278190080
770.448 487.15109 471.55359 4278190080
920.41956 686.2099 403.90579 4278190080
661.68909 79.743378 275.73465 4278190080
330.99197 940.72101 308.53632 4278190080
905.20178 855.43738 293.84912 4278190080
535.30719 136.57135 888.30194 4278190080
376.79062 533.6709 20.389912 4278190080
367.39044 890.44598 251.72523 4278190080
859.31549 337.37335 849.09509 4278190080
588.82227 388.48694 20.072472 4278190080
234.06348 134.93494 507.22357 4278190080
705.61707 31.354506 169.43347 4278190080
85.522881 693.04358 249.17685 4278190080
361.25754 0.035555363 165.89787 4278190080
669.79382 905.23737 1021.3353 4278190080
963.64294 416.54453 133.9066 4278190080
827.94495 793.33514 667.57745 4278190080
848.33484 136.7256 534.02344 4278190080
76.060066 996.04108 871.39679 4278190080
925.15515 560.86334 235.88376 4278190080
945.2276 794.92682 370.8187 4278190080
428.45117 476.54388 402.17319 4278190080
597.88464 562.06677 71.216774 4278190080
847.06152 923.32428 71.252327 4278190080
1012.9594 569.11816 976.48969 4278190080
1010.2946 508.76111 369.03421 4278190080
120.2012 312.70605 138.36937 4278190080
787.77869 137.04088 275.09497 4278190080
297.80215 213.10094 247.13605 4278190080
145.19896 114.25607 807.99939 4278190080
381.08273 35.483677 578.92621 4278190080
751.90143 463.93484 31.470098 4278190080
130.07462 37.819511 593.53687 4278190080
201.2914 884.88098 492.86118 4278190080
272.54373 873.84039 37.97934 4278190080
225.03342 860.13501 546.74048 4278190080
594.06763 980.33618 859.44653 4278190080
732.43701 744.11487 996.48737 4278190080
1007.5319 17.917015 185.58832 4278190080
230.668 163.11597 299.84439 4278190080
14.667385 544.19867 335.32806 4278190080
593.59357 272.1001 799.26294 4278190080
625.06366 402.17474 837.08246 4278190080
194.60056 603.46613 697.96344 4278190080
687.46173 876.00983 547.80383 4278190080
725.4411 77.043251 383.93881 4278190080
248.18155 671.11084 340.27499 4278190080
83.628044 379.54785 60.389862 4278190080
56.115425 363.0798 78.306877 4278190080
241.70374 593.7478 241.42285 4278190080
541.5481 608.41516 785.62152 4278190080
876.87616 178.00877 33.721657 4278190080
652.1391 803.07245 435.89639 4278190080
465.22153 997.67303 15.362506 4278190080
139.18498 661.13477 891.37238 4278190080
686.98877 362.57584 968.41559 4278190080
46.927593 610.75739 615.52649 4278190080
387.20258 694.38544 995.07434 4278190080
447.59244 750.50085 334.15414 4278190080
525.89929 992.20459 927.90192 4278190080
767.32214 509.75272 512.31714 4278190080
528.94373 362.62891 690.32593 4278190080
562.66534 1014.768 469.39838 4278190080
998.56177 455.98956 443.07138 4278190080
1013.9243 595.17456 80.206161 4278190080
881.29663 258.16333 442.78201 4278190080
825.71222 305.09091 29.53941 4278190080
417.23868 692.29352 723.92487 4278190080
388.31299 115.88594 450.42572 4278190080
722.4671 641.78528 418.63031 4278190080
626.36908 385.10742 928.38306 4278190080
114.68619 914.05115 267.01196 4278190080
805.01208 452.71649 257.77997 4278190080
250.41046 427.27826 713.76953 4278190080
693.48187 417.20251 284.94406 4278190080
773.68805 274.49911 543.10742 4278190080
192.47003 76.211304 848.1983 4278190080
222.00945 493.44998 516.49182 4278190080
945.93433 881.763 632.37775 4278190080
372.36002 580.2301 250.16301 4278190080
790.99036 182.59915 635.27045 4278190080
695.37341 297.28534 525.32153 4278190080
962.38538 78.29744 978.03802 4278190080
196.16533 328.70792 381.31628 4278190080
909.93488 1022.1898 798.5188 4278190080
170.87894 771.87781 49.017902 4278190080
713.98633 964.34784 125.22921 4278190080
538.18463 162.35727 618.6792 4278190080
30.676458 84.291573 476.44217 4278190080
663.0542 456.65158 32.67226 4278190080
913.21722 223.64194 215.27142 4278190080
524.48767 919.01532 512.55676 4278190080
25.809196 857.4007 590.85419 4278190080
1003.8472 29.566004 919.56213 4278190080
361.16354 939.50085 917.75189 4278190080
135.68234 86.379814 665.6297 4278190080
184.70024 800.36615 605.97748 4278190080
309.92944 314.55078 768.33478 4278190080
928.60864 345.22726 852.62634 4278190080
381.05081 1008.2814 285.27792 4278190080
413.72305 897.49866 508.91986 4278190080
628.99451 397.98633 403.93518 4278190080
117.55125 423.7955 237.33586 4278190080
708.40546 403.64276 266.90186 4278190080
603.96759 764.80634 182.40273 4278190080
497.71945 900.48865 268.78253 4278190080
139.34912 61.188885 45.148693 4278190080
745.3266 371.11835 359.69949 4278190080
489.66138 275.72696 704.92676 4278190080
318.28772 656.77777 689.20819 4278190080
603.56567 46.500832 562.70691 4278190080
88.485519 675.4953 960.69318 4278190080
492.42072 793.04657 360.48871 4278190080
729.75653 477.452 764.13147 4278190080
996.65839 57.419571 504.93777 4278190080
155.06114 555.13904 381.42642 4278190080
423.84369 694.48816 442.61533 4278190080
468.9924 415.81476 813.73364 4278190080
828.69189 905.47614 65.460625 4278190080
509.61862 199.76385 722.2384 4278190080
174.82683 803.32953 768.7392 4278190080
737.53369 891.81506 420.23453 4278190080
674.22693 360.23575 189.28108 4278190080
10.715632 65.992294 666.73309 4278190080
774.84711 38.650711 724.15265 4278190080
255.78491 193.71185 255.29167 4278190080
637.21136 617.55554 949.77979 4278190080
55.826656 62.547939 341.59457 4278190080
869.5603 891.23981 223.07069 4278190080
935.02094 376.85843 422.83456 4278190080
633.25934 551.68524 202.16406 4278190080
377.99857 265.21896 69.979103 4278190080
798.23309 939.44586 430.21484 4278190080
987.51416 950.1615 496.20712 4278190080
630.24725 701.00861 534.85785 4278190080
330.39993 956.79352 728.5697 4278190080
585.69159 570.00488 322.12524 4278190080
511.47144 625.83154 384.67319 4278190080
853.06598 471.39185 251.91301 4278190080
52.136677 382.41278 628.77142 4278190080
474.97122 1015.6721 156.4567 4278190080
677.13531 369.67065 421.67566 4278190080
747.11438 143.90373 337.12155 4278190080
153.32922 107.41791 263.28308 4278190080
649.53638 737.66516 964.29169 4278190080
160.39421 44.065109 897.08527 4278190080
888.96393 629.75671 443.09012 4278190080
187.08917 117.22814 44.921642 4278190080
571.76239 970.29413 516.31348 4278190080
823.67535 1022.4308 898.72626 4278190080
