# .PCD v0.7 - Point Cloud Data file format
VERSION 0.7
FIELDS x y z rgb
SIZE 4 4 4 4
TYPE F F F U
COUNT 1 1 1 1
WIDTH 1176
HEIGHT 1
VIEWPOINT 0 0 0 1 0 0 0
POINTS 1176
DATA ascii
565.45331 127.2921 778.47162 4278190080
54.873306 716.69165 249.00459 4278190080
300.66269 540.70331 616.74963 4278190080
171.96507 496.54724 185.62943 4278190080
709.26862 750.69373 638.0863 4278190080
372.10138 774.98645 390.10419 4278190080
876.0777 598.87671 959.77502 4278190080
597.3847 668.49567 995.50952 4278190080
419.97278 354.1806 503.72247 4278190080
785.09174 39.770069 723.76721 4278190080
796.87726 605.22333 851.05933 4278190080
551.34882 660.09668 543.75098 4278190080
800.35345 960.75934 60.454262 4278190080
393.10309 108.72443 557.00146 4278190080
578.73254 817.99304 283.69525 4278190080
192.81883 166.09442 34.681702 4278190080
582.92303 18.172102 633.55841 4278190080
518.69806 615.55676 278.05408 4278190080
490.20758 11.529568 632.23468 4278190080
993.93005 796.62134 672.00476 4278190080
693.69727 569.49854 253.22812 4278190080
520.75659 96.847397 913.32477 4278190080
40.507542 897.20081 850.08417 4278190080
100.9618 266.30392 958.80859 4278190080
657.96332 845.03644 752.80164 4278190080
941.65851 13.855265 918.89606 4278190080
976.34021 596.77832 937.06812 4278190080
585.89868 91.476326 528.62494 4278190080
863.95276 581.6839 540.15448 4278190080
472.18747 551.61395 312.77582 4278190080
120.19222 221.31119 882.27435 4278190080
373.42035 742.06775 979.12177 4278190080
262.74512 782.57532 852.32257 4278190080
88.829277 883.53711 94.626503 4278190080
23.637848 517.50037 939.66296 4278190080
776.43945 435.15894 953.51819 4278190080
671.33551 387.49915 526.29651 4278190080
584.40363 973.39783 617.77283 4278190080
89.02858 813.35059 175.45671 4278190080
629.18311 261.53806 727.07062 4278190080
941.95886 381.73029 948.38184 4278190080
800.23328 755.15063 666.44958 4278190080
755.35504 1017.8958 425.02487 4278190080
583.67761 82.725021 284.56195 4278190080
678.30414 106.36287 802.06238 4278190080
593.96704 882.80231 213.22127 4278190080
523.48529 530.13782 600.72046 4278190080
25.781757 90.541489 550.11829 4278190080
643.55457 179.57007 339.46884 4278190080
819.01129 808.75311 601.0069 4278190080
522.08191 726.71204 982.73718 4278190080
446.46371 502.94531 713.88782 4278190080
88.913292 234.30032 707.78357 4278190080
513.93817 817.97797 790.50854 4278190080
798.50012 472.28207 896.87146 4278190080
576.56244 42.249123 755.67377 4278190080
789.78375 565.73438 261.81161 4278190080
366.50418 591.51611 352.35309 4278190080
916.62244 211.07072 531.92316 4278190080
232.09129 6.082005 316.6763 4278190080
833.09821 528.16394 19.388344 4278190080
791.83539 974.62762 522.33362 4278190080
481.72318 39.540943 756.63397 4278190080
165.50671 553.47913 550.61188 4278190080
956.01526 327.97922 1022.894 4278190080
828.88672 904.54169 41.143089 4278190080
560.56049 670.32544 606.8775 4278190080
822.37213 12.829597 174.39362 4278190080
150.72522 929.45203 385.46436 4278190080
682.64838 137.54333 391.54636 4278190080
999.32471 970.64154 919.71027 4278190080
1018.713 738.47693 870.33789 4278190080
517.04669 196.20007 909.87885 4278190080
249.68065 361.70679 439.35794 4278190080
800.29254 293.72208 767.33716 4278190080
799.18652 98.608803 647.87885 4278190080
840.32959 659.16931 294.20425 4278190080
423.20709 457.54141 307.03387 4278190080
597.60071 608.2666 212.4859 4278190080
983.06506 266.91501 350.02924 4278190080
350.61139 242.2397 296.67075 4278190080
246.32166 236.95273 11.147661 4278190080
92.659569 753.99939 207.34775 4278190080
1002.5385 1003.6801 569.05457 4278190080
417.89639 779.9726 862.77661 4278190080
161.23355 555.15912 961.38544 4278190080
809.11237 371.48871 596.55475 4278190080
79.316658 794.6958 30.09614 4278190080
386.35052 368.29651 638.36279 4278190080
598.83643 327.36154 905.27777 4278190080
948.86566 677.9729 123.51748 4278190080
221.53639 924.29456 360.47021 4278190080
232.68407 1016.9542 90.46962 4278190080
440.0318 995.49255 70.149673 4278190080
1009.0864 389.38895 850.12225 4278190080
847.86298 550.6225 381.28137 4278190080
785.24841 335.73489 752.77008 4278190080
357.8031 415.05154 523.46588 4278190080
387.89926 801.4021 891.76239 4278190080
2.2620182 376.23849 195.12395 4278190080
907.53979 301.10413 873.09686 4278190080
7.057272 522.6405 773.39148 4278190080
367.5275 755.32458 766.34558 4278190080
457.9971 171.3564 737.8382 4278190080
528.14679 156.44273 103.22714 4278190080
354.26904 1004.3057 653.84967 4278190080
735.55042 765.55408 989.58453 4278190080
464.32053 99.357185 380.63611 4278190080
987.78644 487.25644 158.03816 4278190080
855.54883 489.51846 534.27667 4278190080
26.672787 373.05826 835.3808 4278190080
899.76965 380.11551 334.02133 4278190080
649.16113 747.64301 65.345909 4278190080
391.50671 181.64011 236.7023 4278190080
105.34489 709.78687 393.14505 4278190080
208.57204 40.055935 373.45074 4278190080
862.42169 775.60638 115.00481 4278190080
828.00623 215.92691 214.362 4278190080
184.64233 179.71335 701.61841 4278190080
342.68051 11.262192 167.13689 4278190080
876.95715 37.934978 540.19513 4278190080
688.33795 937.70465 920.31067 4278190080
1022.3593 562.86572 643.95367 4278190080
63.70517 954.37244 825.59375 4278190080
300.40747 35.717361 511.38068 4278190080
693.55249 244.2894 551.43658 4278190080
43.003239 82.71109 303.04297 4278190080
158.00804 910.71735 518.96985 4278190080
372.37006 71.35965 698.68323 4278190080
49.98848 414.04016 709.94543 4278190080
217.12537 266.99731 747.88037 4278190080
757.3205 955.33527 661.58502 4278190080
653.63116 953.69452 200.45078 4278190080
273.58484 1017.3997 130.82324 4278190080
75.178619 293.80716 166.5406 4278190080
586.55927 987.35968 410.83002 4278190080
113.99588 6.3628979 493.54111 4278190080
417.03885 164.37094 380.25842 4278190080
936.00873 536.74097 451.61807 4278190080
610.69196 586.72949 865.6582 4278190080
296.63736 803.85486 108.65553 4278190080
20.517744 537.17535 39.990768 4278190080
682.10278 166.80652 993.6853 4278190080
882.55353 440.39136 987.08496 4278190080
1013.3768 515.57001 256.89209 4278190080
155.9174 78.129265 220.25175 4278190080
566.74744 192.12515 226.61465 4278190080
36.288513 609.164 390.9856 4278190080
416.54694 521.17273 927.72662 4278190080
868.16498 107.86465 490.45605 4278190080
709.82324 404.50201 270.31091 4278190080
818.47876 425.01974 807.48627 4278190080
858.46948 83.122528 974.29279 4278190080
828.15479 965.67609 390.68414 4278190080
791.23975 955.05286 906.25409 4278190080
24.131844 86.970291 984.38336 4278190080
244.38361 653.71771 152.50853 4278190080
470.99826 690.00623 761.67255 4278190080
861.98389 82.553154 258.84525 4278190080
765.71045 950.71814 366.7099 4278190080
232.16653 636.54138 771.21191 4278190080
502.47745 431.02011 172.23164 4278190080
285.96368 265.48962 255.35417 4278190080
236.25647 69.644409 197.03026 4278190080
626.94061 860.88416 128.08315 4278190080
509.1947 885.01599 215.05344 4278190080
469.57809 105.3996 868.77118 4278190080
622.08661 576.39789 534.77734 4278190080
359.75916 414.38174 617.33051 4278190080
618.60437 156.09221 544.04871 4278190080
985.31427 388.25873 156.59006 4278190080
732.52618 890.73621 587.61017 4278190080
904.75781 152.69987 853.09979 4278190080
136.112 388.95633 922.7442 4278190080
333.14227 1015.8969 759.62836 4278190080
461.2254 501.09164 620.64435 4278190080
676.27887 970.66974 726.04395 4278190080
521.04999 568.75635 278.44183 4278190080
31.82737 928.5155 692.82355 4278190080
649.1579 523.11987 848.91577 4278190080
169.20659 484.43414 213.1745 4278190080
325.79663 192.96033 79.910675 4278190080
913.4068 73.718147 232.61055 4278190080
742.50659 209.83015 621.56689 4278190080
641.25079 542.97241 613.46381 4278190080
376.87918 1004.1978 90.555466 4278190080
997.52356 656.47668 37.225212 4278190080
699.5675 153.52666 605.98157 4278190080
978.00934 185.35403 510.49707 4278190080
646.83289 834.5119 9.6169682 4278190080
471.74863 1003.7185 494.05112 4278190080
684.92316 305.51517 687.01147 4278190080
764.8338 194.92198 760.72961 4278190080
997.44434 937.42859 970.55975 4278190080
595.01123 554.67944 489.53217 4278190080
184.47507 931.55859 469.72998 4278190080
275.03055 905.08215 102.20665 4278190080
312.25577 580.64966 255.73331 4278190080
918.2373 534.65894 441.08734 4278190080
404.73441 157.49182 251.59927 4278190080
414.35138 629.24048 231.31779 4278190080
908.40253 290.16357 536.83295 4278190080
571.41394 30.9974 731.75494 4278190080
308.14355 4.4417648 645.18353 4278190080
254.70331 599.453 175.86296 4278190080
744.23547 783.9281 83.421562 4278190080
189.96545 34.95863 988.50372 4278190080
292.17212 347.21439 545.15332 4278190080
547.9054 241.45171 55.812275 4278190080
988.99274 646.1861 213.30409 4278190080
216.59203 36.537502 842.54456 4278190080
447.90982 944.94 108.70812 4278190080
984.7428 492.35397 139.70552 4278190080
692.49774 800.49756 144.14729 4278190080
313.68124 31.200848 743.60028 4278190080
489.54422 775.43634 503.52838 4278190080
572.96576 965.40179 538.487 4278190080
537.46948 233.5739 885.70142 4278190080
58.62281 781.47931 103.15311 4278190080
114.43509 746.47205 749.33923 4278190080
327.73917 963.06409 785.87677 4278190080
146.28372 386.97391 706.81677 4278190080
254.99184 347.71667 175.17072 4278190080
394.69736 16.214396 975.66827 4278190080
538.84467 329.89566 1006.8691 4278190080
258.44498 819.43988 758.30542 4278190080
761.97333 368.40564 699.70721 4278190080
276.46039 905.87512 933.28113 4278190080
138.16179 964.49792 690.76044 4278190080
241.3149 54.933014 413.23248 4278190080
990.65411 382.67218 352.29657 4278190080
752.53088 528.95593 739.27045 4278190080
435.34763 783.94775 62.98716 4278190080
610.51837 154.64511 79.201553 4278190080
562.18658 693.48975 409.0972 4278190080
545.05573 951.93475 204.53706 4278190080
279.36115 689.90808 572.94269 4278190080
979.06836 966.36847 454.81781 4278190080
888.34949 80.530251 395.31573 4278190080
555.10986 321.84515 450.24875 4278190080
968.34235 288.4993 832.92096 4278190080
296.63895 17.030174 337.87683 4278190080
11.909409 452.37781 97.824585 4278190080
74.896568 38.896172 252.4697 4278190080
154.09811 601.08276 945.95947 4278190080
563.19531 122.1385 873.89417 4278190080
767.73236 401.49966 539.80231 4278190080
316.67508 356.56802 482.17075 4278190080
771.49286 220.9175 562.70099 4278190080
142.80861 776.0274 884.54614 4278190080
593.05737 720.36975 149.04543 4278190080
401.97827 1017.0087 166.07561 4278190080
739.8551 4.9180884 618.45343 4278190080
837.67969 79.814659 657.34961 4278190080
66.149399 233.91278 234.43237 4278190080
1012.1089 797.10809 356.57086 4278190080
862.00305 540.84045 758.07056 4278190080
377.80533 857.51556 90.63855 4278190080
859.97607 605.00842 311.55603 4278190080
398.67706 747.81702 63.58342 4278190080
259.22321 316.87436 783.95319 4278190080
408.26865 718.85266 776.96185 4278190080
574.34424 434.70776 781.87994 4278190080
168.79765 248.38747 861.69458 4278190080
826.14722 314.53687 71.607368 4278190080
36.579613 302.64572 868.71545 4278190080
393.15048 140.64879 385.55594 4278190080
127.22102 518.4541 219.07149 4278190080
217.85957 354.43021 824.0799 4278190080
529.41559 753.10724 547.89691 4278190080
592.99902 1012.3304 864.7713 4278190080
352.95221 396.59909 559.62396 4278190080
105.91404 970.94336 994.33173 4278190080
887.79401 115.74099 218.71919 4278190080
725.48859 941.88824 533.25604 4278190080
797.09595 978.46783 835.90179 4278190080
641.8114 347.61832 976.5506 4278190080
3.3673458 474.83936 471.0047 4278190080
222.43883 692.69891 825.43488 4278190080
22.518734 198.11452 554.54211 4278190080
570.41565 791.11353 542.87262 4278190080
411.18695 120.06574 939.47168 4278190080
970.81091 225.97978 886.41504 4278190080
941.14264 89.773766 1002.156 4278190080
135.8618 815.26233 920.04425 4278190080
669.11786 588.35828 874.51208 4278190080
481.01965 206.16968 198.13043 4278190080
433.57022 209.53702 672.96979 4278190080
904.57489 431.97586 341.6687 4278190080
706.00977 454.4946 539.7832 4278190080
236.55193 0.91024303 306.89679 4278190080
779.4245 412.0972 426.96252 4278190080
694.89624 358.90808 652.94232 4278190080
557.31128 276.05072 742.71606 4278190080
535.46729 411.91251 533.97839 4278190080
431.51157 57.030388 98.33667 4278190080
282.02368 538.05005 304.50635 4278190080
480.15411 971.62024 514.0434 4278190080
129.1239 852.19519 946.01923 4278190080
470.7926 534.20496 376.51379 4278190080
1010.5758 770.7569 377.42404 4278190080
293.4726 526.1814 789.52124 4278190080
720.43512 197.07765 124.42934 4278190080
349.37741 754.38892 400.48004 4278190080
68.093491 265.85623 812.39258 4278190080
602.0719 697.3678 869.42297 4278190080
700.40857 979.39148 383.47299 4278190080
1004.9149 435.54559 331.09326 4278190080
494.95828 564.66949 159.28844 4278190080
416.97748 11.462094 693.49341 4278190080
793.49127 1022.0379 440.25027 4278190080
146.91534 291.51053 966.4317 4278190080
936.43658 1011.9456 139.50934 4278190080
36.865921 337.32306 893.89825 4278190080
437.34598 405.41653 135.7545 4278190080
225.73854 1007.4884 833.12231 4278190080
71.161499 683.89697 788.51379 4278190080
454.63449 664.81189 200.05939 4278190080
785.72778 135.77017 764.72888 4278190080
945.01617 552.74768 776.19098 4278190080
614.50958 322.23895 774.22888 4278190080
30.759865 469.1543 41.73941 4278190080
997.19153 381.59088 29.685047 4278190080
112.70089 418.45679 367.00812 4278190080
1006.5991 855.8028 772.42462 4278190080
118.35365 57.541313 755.91309 4278190080
951.47595 128.70282 415.81006 4278190080
715.98975 583.33734 56.621967 4278190080
916.04913 345.06509 192.39214 4278190080
656.77802 266.08127 745.13977 4278190080
408.96896 880.59088 43.378735 4278190080
159.19786 911.35071 512.53302 4278190080
200.93727 884.5423 894.1239 4278190080
230.62233 997.24316 288.58069 4278190080
597.63043 979.84235 120.38346 4278190080
346.05508 74.195969 177.92477 4278190080
77.968163 1.6719193 306.62759 4278190080
493.77823 717.66168 889.9649 4278190080
550.40021 609.71075 211.03 4278190080
742.79236 242.48877 477.11127 4278190080
463.93213 651.45776 333.70212 4278190080
507.31085 810.65564 221.05286 4278190080
1019.8439 1011.5929 81.595139 4278190080
889.96777 218.21521 54.83831 4278190080
154.54846 815.84564 10.680637 4278190080
274.93192 137.90073 84.87661 4278190080
452.85669 215.86888 86.548531 4278190080
759.48431 709.64709 804.21021 4278190080
625.44922 236.04732 389.92096 4278190080
836.47919 978.83966 632.40973 4278190080
289.59045 418.77179 259.86746 4278190080
623.2926 926.08264 46.523083 4278190080
844.34546 921.92651 34.115971 4278190080
925.94061 787.89429 252.33118 4278190080
980.77893 942.44275 44.176826 4278190080
991.45953 193.37468 182.07755 4278190080
52.336151 646.23138 397.94644 4278190080
138.88467 381.71567 83.593552 4278190080
943.09485 1007.1649 319.64087 4278190080
309.01581 819.6441 274.48053 4278190080
941.42554 85.23455 693.25232 4278190080
177.29301 708.52716 595.33496 4278190080
223.8161 528.87262 493.26144 4278190080
257.93207 430.8132 257.15573 4278190080
510.26324 387.5921 175.59848 4278190080
554.44006 355.05164 368.97314 4278190080
736.51764 407.38779 1015.2045 4278190080
110.46407 546.27246 372.9202 4278190080
194.05762 465.36734 356.08505 4278190080
513.69849 774.38312 151.72914 4278190080
788.17902 691.80872 236.9637 4278190080
457.4313 869.10168 945.49084 4278190080
28.766247 68.917809 450.36343 4278190080
522.02771 326.84988 881.17664 4278190080
779.18341 837.11316 244.76874 4278190080
954.78186 367.55322 599.82037 4278190080
299.75504 80.070862 1007.2082 4278190080
290.95956 190.53493 529.48065 4278190080
663.87976 384.59253 994.84796 4278190080
1019.9648 898.29102 745.23108 4278190080
147.69395 662.47003 413.03979 4278190080
384.65765 95.901352 258.14151 4278190080
306.1485 124.66759 327.05933 4278190080
756.51196 646.69531 653.90918 4278190080
613.6886 401.87869 467.02234 4278190080
858.45734 332.66058 834.57556 4278190080
434.27771 632.41565 914.64642 4278190080
417.48587 923.37518 81.181358 4278190080
946.96649 563.25494 465.7739 4278190080
917.81445 559.21973 340.06491 4278190080
639.04559 706.9137 1002.535 4278190080
28.085369 67.571335 74.43631 4278190080
286.22687 373.71985 199.10391 4278190080
613.28619 106.23178 845.79919 4278190080
243.19537 719.92035 223.67789 4278190080
710.21771 554.37769 556.3385 4278190080
520.79327 988.6554 164.7541 4278190080
411.43973 382.14127 64.12928 4278190080
492.62109 305.10776 627.38422 4278190080
958.39496 198.92223 162.60393 4278190080
274.4599 837.96777 869.51764 4278190080
252.99487 866.05316 937.08893 4278190080
327.43118 128.28004 286.80878 4278190080
526.5351 741.56622 393.04056 4278190080
348.33429 984.7616 88.96093 4278190080
572.01215 670.97931 643.33862 4278190080
104.35065 167.77261 607.99402 4278190080
269.10477 579.21234 990.13525 4278190080
333.23404 47.833408 271.24301 4278190080
960.61823 1006.2284 470.16522 4278190080
99.222168 256.68829 284.13303 4278190080
968.73981 509.68317 126.1862 4278190080
881.82874 837.11438 254.46623 4278190080
144.63753 339.64944 996.03247 4278190080
537.6781 687.9837 956.79407 4278190080
626.63904 235.99588 603.77338 4278190080
245.97763 340.34653 771.54596 4278190080
853.97162 609.45129 326.7583 4278190080
820.10687 942.6853 374.59171 4278190080
67.349899 879.30359 356.8201 4278190080
537.51514 978.52576 613.50842 4278190080
821.64813 923.2655 99.191582 4278190080
947.83435 781.09424 936.30591 4278190080
178.3006 925.73181 251.95537 4278190080
150.33305 439.40988 939.93909 4278190080
83.127098 42.048901 151.93497 4278190080
686.90045 288.02655 492.28149 4278190080
434.44644 117.99818 77.732773 4278190080
761.20477 938.10504 1020.4181 4278190080
111.79647 1005.455 875.72168 4278190080
468.61658 518.97009 830.24738 4278190080
58.124989 316.61826 729.51294 4278190080
157.31657 240.45261 486.60718 4278190080
69.622505 418.7532 388.33896 4278190080
321.57788 569.08624 827.74884 4278190080
237.51695 652.21332 869.79773 4278190080
389.4519 315.11383 133.82428 4278190080
881.7334 749.56024 251.82246 4278190080
959.46619 486.76501 165.92752 4278190080
955.88428 598.56152 147.38249 4278190080
807.60596 43.178074 666.3526 4278190080
613.85333 101.30306 982.97083 4278190080
319.36624 258.61963 199.42343 4278190080
805.97345 328.24213 618.17664 4278190080
170.31238 649.82001 163.26286 4278190080
998.06122 887.33698 815.4762 4278190080
843.85895 252.78888 106.59002 4278190080
977.68323 110.52229 856.15027 4278190080
205.50571 45.988468 318.91531 4278190080
371.43323 1001.8727 917.47681 4278190080
518.81573 785.4787 960.65491 4278190080
161.1683 375.332 37.957939 4278190080
120.13912 694.69824 296.57758 4278190080
319.56253 476.67166 624.8197 4278190080
937.73914 646.98407 250.63972 4278190080
77.002022 621.04529 113.97669 4278190080
892.47821 440.90427 366.76556 4278190080
999.06824 394.58749 477.28787 4278190080
831.21851 600.0932 523.27631 4278190080
126.13383 971.52643 501.14908 4278190080
19.61064 466.34216 262.62775 4278190080
980.2655 627.5105 637.95978 4278190080
1018.2234 747.6496 308.65802 4278190080
290.80103 43.212132 785.32971 4278190080
915.62073 980.95129 408.31375 4278190080
142.26047 33.953316 5.3590336 4278190080
256.23715 926.43152 446.26328 4278190080
623.00275 901.49976 840.85077 4278190080
76.290596 708.71832 416.944 4278190080
599.56696 834.85217 364.47046 4278190080
76.716003 854.46277 830.81262 4278190080
339.34375 810.72827 434.32309 4278190080
977.30353 804.95178 157.97269 4278190080
261.96152 71.752785 201.18481 4278190080
23.291212 987.37354 158.13611 4278190080
431.60495 105.634 192.08943 4278190080
436.96399 361.87115 94.520973 4278190080
883.22729 984.8739 996.02075 4278190080
700.07806 37.164478 680.73907 4278190080
93.022079 636.73138 491.59122 4278190080
457.49255 713.44739 322.05399 4278190080
264.30518 28.791172 108.7823 4278190080
698.6283 1006.0947 913.73407 4278190080
856.60095 244.05621 985.48682 4278190080
33.785782 267.34741 948.86035 4278190080
191.92189 698.95239 30.494358 4278190080
384.01132 111.91638 392.36551 4278190080
478.53229 995.14368 353.23938 4278190080
450.55304 671.22174 390.40387 4278190080
107.29211 764.24384 3.1352692 4278190080
598.8833 197.73636 716.5827 4278190080
920.93732 462.04153 745.37384 4278190080
5.7196145 136.6698 727.46857 4278190080
919.45367 993.27075 971.52478 4278190080
880.94049 3.0565481 214.87219 4278190080
805.80084 194.97844 913.82458 4278190080
836.29523 578.98975 1.7409554 4278190080
204.66074 33.522072 996.88464 4278190080
557.90015 484.07513 644.10638 4278190080
948.30396 591.36725 384.35019 4278190080
951.43927 166.25056 582.08655 4278190080
644.02191 63.187885 20.128071 4278190080
365.39578 68.907501 156.79788 4278190080
68.864334 988.36115 126.06864 4278190080
16.389093 845.3017 129.1252 4278190080
231.26128 627.10254 324.10364 4278190080
121.08585 439.39777 903.09338 4278190080
122.82681 644.05853 936.61548 4278190080
95.711426 177.95862 396.69061 4278190080
739.81781 102.2626 988.05786 4278190080
100.16796 29.701855 130.30841 4278190080
682.25452 673.72382 193.49631 4278190080
702.38257 15.119577 262.40381 4278190080
859.18042 83.98391 226.76497 4278190080
985.24908 100.373 48.066643 4278190080
90.374283 331.63428 675.16919 4278190080
414.47794 452.72012 90.566963 4278190080
293.57132 575.54694 734.62549 4278190080
206.18681 671.25836 912.58411 4278190080
602.87744 387.07614 1014.8467 4278190080
566.9353 487.24411 20.54855 4278190080
697.24371 145.49863 694.27234 4278190080
890.73999 847.88116 709.39191 4278190080
129.1438 683.06165 793.37585 4278190080
355.90878 644.31073 893.74884 4278190080
403.9754 734.685 201.38312 4278190080
55.144608 125.16294 654.10327 4278190080
145.71156 418.73428 205.65019 4278190080
880.33704 624.92108 876.90857 4278190080
768.92114 203.79852 239.98473 4278190080
759.76782 770.73376 727.22882 4278190080
780.31635 443.97748 872.72748 4278190080
450.58871 310.7175 696.60864 4278190080
135.98062 439.8613 355.67029 4278190080
929.35645 795.77008 999.98102 4278190080
799.10529 175.74548 710.66608 4278190080
1000.4884 230.89009 835.82898 4278190080
630.59167 376.60165 230.56326 4278190080
836.24182 232.93869 855.48438 4278190080
689.15039 1001.8598 35.282871 4278190080
929.13513 737.62762 806.01666 4278190080
632.36395 493.944 225.99416 4278190080
481.09143 944.53271 536.71167 4278190080
153.70006 56.513325 976.57294 4278190080
509.37036 985.86975 748.34302 4278190080
485.35138 760.97504 924.0885 4278190080
172.01743 737.46344 130.97856 4278190080
1007.8464 344.05508 507.5802 4278190080
214.40968 156.29694 740.51892 4278190080
45.894043 845.44733 718.37872 4278190080
81.17691 750.58246 432.00632 4278190080
887.1936 358.94641 925.95032 4278190080
89.187737 840.03784 846.48303 4278190080
625.89935 993.73792 902.99634 4278190080
578.47229 479.10828 864.86609 4278190080
302.81531 964.45966 601.84119 4278190080
202.90378 112.47707 315.30463 4278190080
333.88232 96.323494 659.35974 4278190080
841.46252 310.73318 815.65668 4278190080
557.98145 356.62723 637.104 4278190080
252.36015 437.80414 363.68646 4278190080
684.36646 300.99771 722.63287 4278190080
586.31677 390.18546 538.67072 4278190080
408.79984 1016.0848 508.40863 4278190080
287.79617 570.55713 987.51691 4278190080
128.66229 873.37244 927.97656 4278190080
730.50348 52.276199 16.453627 4278190080
21.808084 386.15854 112.77712 4278190080
681.16779 203.62108 423.51031 4278190080
472.82446 761.60254 780.13751 4278190080
85.928459 1013.9626 193.94167 4278190080
449.61493 674.32916 494.93939 4278190080
148.24782 236.64594 885.12482 4278190080
686.91852 645.44574 877.20966 4278190080
171.32718 933.24194 423.76678 4278190080
134.84409 37.904217 273.13922 4278190080
38.820641 768.40765 325.41541 4278190080
55.274265 790.21576 711.57391 4278190080
168.05139 447.38358 915.19501 4278190080
591.56171 920.20801 652.79755 4278190080
347.69922 1006.1365 642.76019 4278190080
541.64087 431.7514 293.08936 4278190080
12.580269 579.99921 529.73529 4278190080
897.70508 242.91777 151.18105 4278190080
750.91473 414.24496 60.422966 4278190080
150.68155 549.08905 98.327179 4278190080
423.82077 587.90967 866.73486 4278190080
749.23615 643.18396 632.95062 4278190080
436.81012 811.23535 56.334187 4278190080
328.00513 378.79703 976.54224 4278190080
980.80267 726.49628 958.67871 4278190080
599.56287 244.13715 366.43011 4278190080
892.65222 256.71741 946.42932 4278190080
398.38751 130.42252 165.34711 4278190080
549.56854 881.33728 579.59204 4278190080
609.99152 8.0188198 104.68111 4278190080
708.31866 431.83957 692.59082 4278190080
551.05353 157.07576 311.77475 4278190080
160.00417 593.88586 99.010094 4278190080
216.33835 921.89099 477.80713 4278190080
168.88057 878.69366 180.30338 4278190080
103.55928 454.25656 424.44052 4278190080
469.98938 322.90878 681.15796 4278190080
392.41873 721.29626 811.58044 4278190080
557.76587 246.86481 668.91772 4278190080
113.35791 856.85632 676.93652 4278190080
218.03903 541.17499 84.776123 4278190080
910.62982 68.228554 241.85188 4278190080
198.40457 228.23273 835.73773 4278190080
297.41467 444.57108 733.62878 4278190080
775.2218 613.45166 588.32245 4278190080
955.52515 717.01093 18.579012 4278190080
355.9657 163.00032 341.48779 4278190080
13.123636 555.41907 38.784065 4278190080
824.7041 89.184898 285.64886 4278190080
469.62183 202.54282 118.5052 4278190080
122.55836 420.58185 659.68018 4278190080
207.33449 307.21167 727.90875 4278190080
449.18637 505.61624 956.14148 4278190080
260.92413 803.03088 376.71255 4278190080
994.55292 554.25269 990.16418 4278190080
558.87537 485.77786 683.17511 4278190080
577.45435 841.74359 846.17548 4278190080
918.94214 854.86719 377.59451 4278190080
957.7262 655.57129 466.77939 4278190080
219.37509 101.19311 669.3222 4278190080
337.88028 223.75146 65.904045 4278190080
997.56049 431.08597 373.11572 4278190080
701.46924 880.27234 878.73193 4278190080
633.61072 117.19645 657.76288 4278190080
1010.3232 87.749344 188.01556 4278190080
976.48749 646.62469 673.79346 4278190080
635.6626 200.07904 491.53699 4278190080
457.83804 95.021194 322.40421 4278190080
835.43256 28.747402 977.97552 4278190080
278.21194 248.12248 55.168617 4278190080
947.53418 586.00275 278.92007 4278190080
1013.4382 559.56323 710.00604 4278190080
362.55392 237.03249 566.27838 4278190080
217.28587 870.64319 683.47479 4278190080
875.04877 856.96649 771.22418 4278190080
39.064293 809.45392 393.84885 4278190080
712.85773 421.11652 593.92792 4278190080
180.39473 878.95459 688.9491 4278190080
502.79892 690.38715 717.69647 4278190080
456.77444 968.59912 965.81897 4278190080
511.94305 892.13324 527.82172 4278190080
790.86316 881.57147 63.384998 4278190080
476.86917 220.1254 300.41748 4278190080
19.147541 437.41129 147.06068 4278190080
702.62238 288.46002 1004.0272 4278190080
449.84653 327.52432 789.48108 4278190080
843.69537 16.382036 186.59761 4278190080
413.62326 196.77676 41.552189 4278190080
78.572342 699.57568 731.93933 4278190080
796.2688 132.35014 676.53839 4278190080
738.08783 644.29321 544.67169 4278190080
241.90955 411.15634 402.24313 4278190080
305.29456 888.02551 622.36853 4278190080
605.71204 907.17303 35.779823 4278190080
752.77271 585.79541 324.23984 4278190080
732.79987 11.641918 651.76416 4278190080
498.28091 855.33728 668.14618 4278190080
684.87854 244.96053 864.92297 4278190080
726.43073 323.53287 540.49866 4278190080
434.37006 95.801697 672.84875 4278190080
86.908463 833.88953 293.14197 4278190080
631.58014 51.799049 704.29828 4278190080
9.8232813 357.0936 568.32379 4278190080
632.19183 962.8056 451.49686 4278190080
667.97168 691.57831 13.292274 4278190080
992.21149 400.37817 24.934193 4278190080
619.97565 898.65912 880.27148 4278190080
264.12183 559.53766 101.232 4278190080
105.04478 261.96838 424.76486 4278190080
645.54346 696.33844 520.56659 4278190080
294.39221 783.24689 330.45605 4278190080
587.53418 390.82703 382.2551 4278190080
267.83249 400.6503 739.34869 4278190080
836.15631 8.8421326 678.1543 4278190080
263.6532 676.81378 345.73267 4278190080
276.94547 645.02527 746.11084 4278190080
301.87964 241.00093 620.76996 4278190080
158.15112 505.12277 156.30762 4278190080
259.38312 610.16754 418.276 4278190080
684.14801 231.71098 90.614426 4278190080
180.71455 526.10321 873.86133 4278190080
511.17062 89.637398 240.68834 4278190080
893.42572 357.46991 641.33862 4278190080
608.77441 169.62622 650.18079 4278190080
262.92877 433.27939 302.99457 4278190080
608.66144 710.22485 948.01984 4278190080
330.77228 1012.1045 165.02077 4278190080
951.54224 146.25563 670.14355 4278190080
83.849869 405.63873 256.31107 4278190080
502.12585 65.786736 488.02206 4278190080
592.7403 246.50128 1014.1252 4278190080
442.60162 757.67188 79.76265 4278190080
683.28998 627.09766 437.23254 4278190080
300.6286 211.87206 606.85876 4278190080
950.80939 474.80081 16.138161 4278190080
229.80396 59.462242 726.36304 4278190080
153.82379 390.23453 714.46753 4278190080
318.84457 317.77676 860.72314 4278190080
988.9881 401.62662 242.36189 4278190080
221.29916 903.7525 308.14862 4278190080
709.32123 472.4928 554.6499 4278190080
699.44647 915.09442 288.32181 4278190080
779.20911 574.38434 915.41943 4278190080
192.44168 875.01294 103.29151 4278190080
799.30042 801.82233 578.09235 4278190080
815.4386 7.6262956 637.55457 4278190080
517.80164 161.45009 3.789084 4278190080
208.26913 480.29465 321.56583 4278190080
44.992283 445.28275 723.19244 4278190080
287.35416 666.58191 602.94495 4278190080
595.50281 351.90314 51.437748 4278190080
126.1527 27.349609 966.53217 4278190080
414.47452 806.55872 516.9165 4278190080
305.89395 999.00043 367.92947 4278190080
409.18549 774.30084 145.75183 4278190080
987.27783 565.7395 153.37811 4278190080
600.8324 59.5411 314.82822 4278190080
604.62146 267.81024 795.12286 4278190080
926.18732 312.80252 216.40561 4278190080
625.37976 600.15668 882.98749 4278190080
204.32472 171.65948 210.89064 4278190080
255.76247 297.81219 238.24025 4278190080
198.29462 712.28668 20.798992 4278190080
715.21112 1018.1807 1019.7994 4278190080
59.14061 403.36615 770.10028 4278190080
204.89244 366.64395 311.83975 4278190080
358.27057 967.47632 371.38086 4278190080
673.09875 548.09778 639.1911 4278190080
444.22162 450.2851 951.99359 4278190080
660.62726 51.664852 528.15033 4278190080
519.61475 255.98956 699.80981 4278190080
730.50537 511.75204 997.62201 4278190080
968.74561 710.04663 685.90869 4278190080
989.54462 401.25778 680.08936 4278190080
985.34406 460.39841 59.455513 4278190080
731.44434 665.29083 426.09946 4278190080
19.284096 1023.5614 369.57581 4278190080
390.66495 672.66016 917.67358 4278190080
5.8560591 92.88179 343.95868 4278190080
957.84967 753.50903 395.62354 4278190080
462 249.12375 651.6131 4278190080
137.80978 979.62915 139.36513 4278190080
111.43178 924.37476 849.4118 4278190080
797.34045 889.91937 226.66959 4278190080
453.42984 851.26343 687.06799 4278190080
512.88531 558.70776 328.35883 4278190080
938.9848 577.99188 327.92023 4278190080
284.56061 968.6568 1000.5804 4278190080
178.23418 974.51288 69.462173 4278190080
522.19287 908.36255 822.97119 4278190080
917.81635 346.36255 48.094948 4278190080
545.42944 484.17233 3.724082 4278190080
684.79462 595.60413 928.09888 4278190080
510.20639 368.94458 794.01825 4278190080
736.87598 822.37439 621.28168 4278190080
399.94394 311.25977 155.98943 4278190080
728.3028 226.24457 733.98126 4278190080
32.222988 510.80518 678.63806 4278190080
8.8033714 689.03937 629.15094 4278190080
78.265541 187.23221 513.51349 4278190080
901.23676 81.048576 859.87604 4278190080
949.33167 626.47803 320.04837 4278190080
953.05579 287.27264 915.65247 4278190080
857.1546 797.479 260.59708 4278190080
627.17285 510.35498 58.971489 4278190080
224.4545 910.29895 370.23123 4278190080
380.44394 614.60168 596.47583 4278190080
90.425194 646.82471 83.280975 4278190080
769.06329 655.62805 772.32031 4278190080
374.21423 733.89362 959.55255 4278190080
887.72772 611.13037 16.60111 4278190080
723.60376 536.46204 643.07916 4278190080
19.652168 465.51779 930.35181 4278190080
935.30469 298.67239 703.83081 4278190080
171.90173 925.84521 190.18581 4278190080
230.87323 126.29974 76.484734 4278190080
601.10449 506.74365 691.08643 4278190080
173.58028 597.16888 313.91113 4278190080
256.86127 342.23215 969.53918 4278190080
5.1815867 716.44635 679.4328 4278190080
964.73413 580.17413 266.56314 4278190080
981.33521 279.77789 803.02515 4278190080
600.41437 299.43005 244.54294 4278190080
506.76617 210.73473 543.21533 4278190080
186.59698 382.63647 445.06058 4278190080
376.78281 613.5097 571.36029 4278190080
453.26752 190.61417 54.103973 4278190080
120.35396 364.19446 651.27283 4278190080
434.26508 621.05573 993.505 4278190080
379.80426 626.2373 685.95135 4278190080
35.237068 566.97144 242.12547 4278190080
301.8002 524.30664 521.90338 4278190080
80.825363 100.72102 821.33344 4278190080
325.36832 607.48718 8.0681581 4278190080
868.58362 794.08417 390.70462 4278190080
289.6442 146.86697 1004.2143 4278190080
861.00452 600.13452 170.82848 4278190080
915.10846 720.48846 535.02295 4278190080
542.38135 130.75356 132.07863 4278190080
511.88629 510.55783 758.31592 4278190080
173.83766 545.79486 301.28732 4278190080
415.96313 847.59509 825.59399 4278190080
937.86652 928.42047 926.315 4278190080
735.19995 229.78876 509.80219 4278190080
743.26807 74.372398 279.88638 4278190080
109.97271 364.0166 426.75336 4278190080
90.187027 201.02112 2.8878531 4278190080
261.0155 92.129601 723.37634 4278190080
796.03845 634.51093 854.12988 4278190080
928.11707 122.39722 340.68768 4278190080
662.43298 296.23489 886.4826 4278190080
963.72028 712.198 710.0777 4278190080
765.31427 626.06451 614.49811 4278190080
667.62927 337.26443 844.28687 4278190080
153.43144 56.532513 918.6593 4278190080
433.31781 166.50522 258.6759 4278190080
860.07117 256.69223 459.69702 4278190080
862.95905 517.70776 551.8266 4278190080
562.33533 289.74619 162.33752 4278190080
392.46521 193.86324 284.73474 4278190080
733.15289 856.2962 580.9696 4278190080
595.63544 796.01654 269.16763 4278190080
281.71313 537.33081 895.23212 4278190080
896.21124 180.96005 208.49657 4278190080
716.49817 334.39148 265.02908 4278190080
611.15747 767.70929 431.5343 4278190080
869.83337 603.78046 688.22656 4278190080
305.53036 442.73947 181.93428 4278190080
857.35699 1005.0748 471.68045 4278190080
1019.6945 373.54001 665.5437 4278190080
280.42926 82.692902 497.8399 4278190080
861.39886 678.32837 269.85645 4278190080
106.56651 960.0415 807.18719 4278190080
1001.7986 832.25275 988.14728 4278190080
186.29521 524.75092 298.53876 4278190080
451.32428 111.90839 42.248074 4278190080
882.85858 981.74176 646.02856 4278190080
547.08514 263.27209 64.768028 4278190080
729.01941 96.629074 45.842846 4278190080
176.69987 92.323578 419.38287 4278190080
842.24359 372.75284 502.07578 4278190080
316.0835 210.1517 156.40411 4278190080
585.93994 316.7182 92.445618 4278190080
369.12714 294.51685 924.69836 4278190080
333.27441 480.81207 425.44931 4278190080
631.81317 932.13635 537.35767 4278190080
674.06122 790.99493 495.09943 4278190080
296.08978 314.08005 758.37152 4278190080
360.85782 19.099445 855.00061 4278190080
406.70065 195.79932 947.32422 4278190080
826.0835 14.042883 296.07703 4278190080
304.15927 330.12637 506.22873 4278190080
460.56342 916.06628 822.94696 4278190080
553.00903 261.19342 93.463791 4278190080
453.7074 594.46783 574.27588 4278190080
879.15668 202.28099 482.4122 4278190080
392.5144 876.34222 249.40714 4278190080
887.61383 148.43202 563.48718 4278190080
621.98535 509.28983 582.58661 4278190080
452.98596 915.99048 778.38593 4278190080
376.31015 718.07404 792.42883 4278190080
672.38721 1022.2333 98.555183 4278190080
154.61589 458.79672 1014.6215 4278190080
977.56281 1011.8057 251.81487 4278190080
47.026619 441.51315 846.28265 4278190080
621.30249 296.66983 24.563667 4278190080
79.714676 689.18427 900.90588 4278190080
329.1218 552.7981 25.337921 4278190080
892.60901 150.78342 534.62775 4278190080
451.19559 603.76941 426.61826 4278190080
205.58153 980.07953 120.69228 4278190080
998.01038 628.46674 118.92559 4278190080
72.565529 783.08264 577.72229 4278190080
63.186989 736.64545 565.52802 4278190080
315.00186 783.67206 1007.0412 4278190080
137.28453 380.97455 279.71103 4278190080
161.84821 460.68921 968.89526 4278190080
38.754101 789.81104 497.69333 4278190080
64.092026 658.41998 648.47675 4278190080
598.71979 85.615608 228.24615 4278190080
1.3380442 291.19714 184.32571 4278190080
122.03033 265.20749 812.79242 4278190080
240.95592 337.77301 571.87506 4278190080
818.67822 400.96002 284.52051 4278190080
360.20627 715.96185 44.192596 4278190080
343.24747 853.2464 425.16714 4278190080
622.9585 1015.0946 885.85638 4278190080
567.85376 29.848701 651.66742 4278190080
41.547089 93.940727 286.0874 4278190080
690.02386 692.66052 371.703 4278190080
918.27002 693.99854 662.90015 4278190080
78.595711 816.02887 928.10767 4278190080
891.38812 32.984802 241.88066 4278190080
439.26321 851.66302 642.8407 4278190080
723.78375 187.86931 334.80255 4278190080
767.97632 531.11676 164.04893 4278190080
169.14346 130.07524 155.14354 4278190080
30.999832 697.92902 184.99223 4278190080
682.66724 739.47607 278.93295 4278190080
968.75464 405.49994 971.59344 4278190080
316.45764 299.76993 641.59204 4278190080
979.35779 378.36563 433.62091 4278190080
883.46545 245.75378 466.60571 4278190080
101.3461 685.01697 294.26874 4278190080
744.18677 384.80072 482.13806 4278190080
54.989319 128.77705 1013.2548 4278190080
219.03825 297.92053 119.33006 4278190080
374.18179 328.92035 817.25903 4278190080
559.17401 1011.5876 532.73511 4278190080
838.10699 956.34222 938.23505 4278190080
785.70044 248.79985 214.00499 4278190080
403.29248 204.15764 592.37061 4278190080
836.91339 63.623074 838.12439 4278190080
279.5191 164.96918 499.14139 4278190080
573.78784 909.15594 883.94214 4278190080
31.925907 964.14526 1012.7192 4278190080
21.180717 159.18353 286.63971 4278190080
140.51077 533.3653 615.56006 4278190080
957.76984 68.539352 603.14764 4278190080
466.50494 906.64636 535.48987 4278190080
380.74002 668.3468 784.28973 4278190080
594.745 47.639301 988.44739 4278190080
163.11562 884.55267 28.070438 4278190080
1001.2401 140.07181 193.03961 4278190080
476.38141 713.85968 78.195564 4278190080
336.32355 745.78558 18.340836 4278190080
325.04276 766.96631 177.52437 4278190080
611.68243 907.47705 710.88971 4278190080
203.24254 841.24689 779.42902 4278190080
806.3902 283.75183 662.07538 4278190080
317.88007 664.49182 306.42218 4278190080
78.169807 235.23683 354.06149 4278190080
42.617172 398.35245 214.61418 4278190080
70.687607 375.59247 354.686 4278190080
263.72723 851.97388 44.545677 4278190080
341.92279 164.29745 790.33124 4278190080
360.26361 489.34021 533.29755 4278190080
537.78796 77.022659 416.77463 4278190080
224.67767 280.2652 234.02151 4278190080
1004.1067 62.655403 517.77338 4278190080
642.18207 380.53549 158.2652 4278190080
948.60425 458.70529 393.50201 4278190080
278.66574 501.32245 791.85449 4278190080
493.27994 572.01007 143.44696 4278190080
847.96594 835.7373 995.42084 4278190080
892.5116 153.66008 135.71831 4278190080
658.8429 513.92371 625.05847 4278190080
168.14043 27.711695 702.08118 4278190080
584.91504 252.38936 982.34637 4278190080
818.93658 232.49606 21.001759 4278190080
312.7099 874.67816 401.53723 4278190080
470.9751 799.28241 860.24255 4278190080
864.47711 53.948143 337.565 4278190080
632.3316 547.22809 909.57507 4278190080
775.77856 371.194 721.31238 4278190080
747.1994 239.70561 874.97247 4278190080
882.91772 898.54846 364.89615 4278190080
483.97623 42.6889 392.60785 4278190080
162.05737 627.60394 644.99719 4278190080
120.40373 422.54053 877.49329 4278190080
141.40549 735.25043 728.17139 4278190080
542.94275 182.22552 503.45383 4278190080
379.18527 22.702663 557.40198 4278190080
716.75024 655.0343 80.630028 4278190080
602.32532 406.81284 451.82404 4278190080
299.6377 130.01225 691.52966 4278190080
150.61014 1012.93 566.07812 4278190080
515.50629 472.90619 608.76703 4278190080
908.11414 634.96356 212.37097 4278190080
529.11133 755.36731 634.9115 4278190080
382.60464 896.77283 346.16193 4278190080
86.776047 415.71555 528.38745 4278190080
590.22986 794.90082 551.09009 4278190080
123.63182 487.65106 182.12439 4278190080
204.26186 65.976395 588.93726 4278190080
656.08588 365.61407 718.94946 4278190080
323.61554 516.22424 707.87946 4278190080
889.69366 7.7305136 156.78566 4278190080
474.46066 915.84467 791.74921 4278190080
686.83167 420.95602 523.11652 4278190080
297.74313 803.56067 395.88934 4278190080
643.90503 890.33667 811.60486 4278190080
148.2925 456.56656 582.50568 4278190080
699.38263 580.19836 46.156734 4278190080
881.50702 784.46021 112.13313 4278190080
446.44424 416.54611 477.74722 4278190080
141.39371 740.16162 993.97144 4278190080
849.27319 605.85529 1001.702 4278190080
1006.0588 56.315941 893.54657 4278190080
773.80804 743.14758 290.50259 4278190080
272.92459 16.890715 70.063248 4278190080
668.81396 660.79578 960.39996 4278190080
456.41882 809.08826 392.96649 4278190080
14.924488 484.47089 973.16486 4278190080
61.081223 341.97787 733.62506 4278190080
173.21436 788.42212 126.17119 4278190080
650.96155 929.81586 866.33282 4278190080
620.93298 755.08899 448.18808 4278190080
598.63495 737.14783 504.50403 4278190080
468.18155 486.9559 223.65161 4278190080
758.68414 759.88049 240.54233 4278190080
828.74738 404.69443 901.33807 4278190080
765.14734 861.11328 686.42633 4278190080
134.11382 876.03772 146.89725 4278190080
83.278687 937.11896 488.87512 4278190080
816.90375 86.333321 253.29724 4278190080
943.07495 737.29486 159.11308 4278190080
785.40778 334.22787 914.20209 4278190080
209.59584 932.86279 627.34991 4278190080
714.09985 377.04434 90.305824 4278190080
937.75146 111.72848 850.18634 4278190080
154.29381 940.47589 230.88077 4278190080
31.631897 681.62323 67.994019 4278190080
718.05823 815.737 944.03174 4278190080
864.95551 899.01569 857.1507 4278190080
329.83063 691.91949 943.48407 4278190080
583.12787 610.99445 656.77893 4278190080
742.24097 372.40219 991.00677 4278190080
632.44305 581.99805 899.86957 4278190080
235.79297 272.0979 252.91393 4278190080
326.09879 185.84938 364.64243 4278190080
152.28511 340.14319 281.11829 4278190080
383.16586 371.77509 962.74152 4278190080
451.15988 65.833344 754.47852 4278190080
371.19165 930.78882 629.4942 4278190080
204.34238 236.61946 297.4137 4278190080
123.82642 819.74731 908.40814 4278190080
780.60535 537.98828 256.8103 4278190080
747.61212 146.43132 838.80835 4278190080
623.48169 382.2243 86.90625 4278190080
876.39563 708.32306 272.75565 4278190080
217.03806 860.60822 612.8988 4278190080
498.15634 219.77406 984.67395 4278190080
436.89783 670.93396 26.507265 4278190080
167.37636 18.125599 957.29608 4278190080
796.87061 222.46797 169.91556 4278190080
70.284286 346.2944 989.6629 4278190080
978.69244 102.89973 503.65118 4278190080
211.50273 850.51184 650.08252 4278190080
26.311071 449.99356 8.3067837 4278190080
113.21732 302.38922 716.62988 4278190080
385.97296 519.42731 553.23804 4278190080
998.87177 1017.5836 773.01215 4278190080
959.54572 430.48148 419.94608 4278190080
986.05298 597.85785 438.07166 4278190080
919.34906 370.72842 660.53967 4278190080
65.264641 441.0127 1006.834 4278190080
30.927528 395.70511 85.733757 4278190080
534.57867 607.20782 936.24561 4278190080
160.66119 633.51892 362.2392 4278190080
168.96797 746.73627 664.62842 4278190080
885.59784 108.7092 160.05569 4278190080
414.83591 83.580986 153.63933 4278190080
163.84801 19.126692 584.12079 4278190080
583.79407 1005.1797 157.97862 4278190080
1021.8658 900.52875 528.70703 4278190080
658.4054 965.7934 969.71973 4278190080
641.23944 996.72089 341.42487 4278190080
726.97321 507.29959 948.63269 4278190080
639.21881 667.96082 558.15161 4278190080
1001.458 836.92877 280.88788 4278190080
642.08643 698.52661 389.59708 4278190080
802.14209 89.362511 473.17804 4278190080
955.78143 253.21053 492.30475 4278190080
515.90222 837.00464 473.48441 4278190080
673.88086 834.87036 350.01315 4278190080
178.58789 469.27576 291.80652 4278190080
124.30763 86.51519 264.52744 4278190080
465.73251 813.4884 771.82703 4278190080
390.3652 428.70718 415.78784 4278190080
948.51685 406.16519 228.71661 4278190080
205.40472 24.251583 927.24323 4278190080
595.00177 826.39368 1016.6058 4278190080
44.179844 758.17511 245.81627 4278190080
536.48462 250.07732 58.820881 4278190080
1009.969 923.95813 893.69122 4278190080
335.98215 78.546051 338.96701 4278190080
627.7887 202.85368 425.48221 4278190080
892.3161 668.58618 214.97058 4278190080
640.14313 34.951401 643.6778 4278190080
31.930992 983.46826 25.842958 4278190080
260.64761 164.87297 50.09454 4278190080
163.89084 759.87476 876.48822 4278190080
156.4966 804.05463 610.66333 4278190080
402.31287 316.53918 860.7406 4278190080
461.13376 302.50821 760.69879 4278190080
330.82498 638.49036 839.24481 4278190080
669.79199 242.27902 18.098516 4278190080
71.274193 110.59514 686.68469 4278190080
286.24478 750.73828 721.63611 4278190080
929.92255 782.66925 681.10437 4278190080
955.7655 19.316891 845.97736 4278190080
1005.86 183.20773 581.85211 4278190080
858.34827 339.70432 361.90671 4278190080
445.0116 742.01721 678.44592 4278190080
281.7522 179.15094 980.9541 4278190080
18.450998 509.97592 595.44446 4278190080
857.69586 155.76793 837.72345 4278190080
875.79437 227.04211 948.3186 4278190080
538.47906 513.28693 675.05688 4278190080
236.11516 419.20947 433.72617 4278190080
917.21948 350.97498 453.04306 4278190080
739.19684 332.83502 636.25079 4278190080
297.04892 167.1833 975.95514 4278190080
658.95563 612.19489 693.97229 4278190080
313.40152 893.94708 873.12323 4278190080
270.35562 912.39807 359.09918 4278190080
865.80005 746.09393 514.86713 4278190080
679.52356 597.88831 741.90924 4278190080
603.84216 112.36733 231.19612 4278190080
254.89905 348.48248 650.40558 4278190080
688.62524 241.702 1001.3806 4278190080
117.6683 980.8988 310.21558 4278190080
753.91907 253.94775 477.39886 4278190080
705.87421 912.90338 65.593765 4278190080
375.84653 202.30492 959.54083 4278190080
224.96979 472.66055 847.93896 4278190080
584.06897 314.4606 570.0329 4278190080
74.936073 993.98419 143.92116 4278190080
816.84528 573.82629 256.28848 4278190080
24.041412 828.7254 604.771 4278190080
674.44702 493.35062 846.47296 4278190080
651.82751 611.01892 803.37183 4278190080
962.04309 340.93799 33.319557 4278190080
415.44199 22.812214 946.22296 4278190080
481.03577 398.65875 124.52785 4278190080
416.57663 623.62854 597.18842 4278190080
240.51558 183.69751 911.64899 4278190080
810.54846 258.63358 881.63318 4278190080
954.4696 51.47887 431.4595 4278190080
186.75812 75.520287 236.18488 4278190080
791.52911 749.96729 729.53546 4278190080
614.00208 377.79483 316.55438 4278190080
393.37387 315.83795 657.49237 4278190080
426.69345 731.27997 680.30457 4278190080
348.91638 188.3157 54.963337 4278190080
473.44421 604.89233 678.59186 4278190080
46.632614 845.4079 862.28937 4278190080
958.28162 631.95636 96.922966 4278190080
815.91479 562.42603 148.40184 4278190080
223.37428 749.18414 223.92212 4278190080
459.55917 516.71326 973.8894 4278190080
165.09464 106.71532 327.6842 4278190080
481.64902 500.0892 643.52216 4278190080
115.14139 926.78265 350.80209 4278190080
795.44598 251.69901 539.1178 4278190080
850.4093 725.14325 120.01012 4278190080
505.00119 771.77582 965.41803 4278190080
343.29056 706.0575 573.37439 4278190080
440.21353 497.97226 111.80042 4278190080
588.61536 721.34656 860.98456 4278190080
812.53748 156.90572 353.69778 4278190080
762.42688 322.00034 460.41312 4278190080
66.111099 803.64935 960.50232 4278190080
709.63324 918.79077 863.28491 4278190080
36.435345 690.23669 90.983932 4278190080
575.55316 516.646 816.1272 4278190080
695.56323 1021.6472 563.90302 4278190080
636.98132 340.93777 245.96048 4278190080
186.35571 781.15131 743.93274 4278190080
298.15613 345.76666 441.2793 4278190080
135.14069 134.30417 598.185 4278190080
488.83847 896.73108 920.18536 4278190080
949.25159 962.84216 699.83472 4278190080
885.75391 648.4754 594.62543 4278190080
725.03882 684.91077 260.86215 4278190080
816.02277 236.4639 777.50818 4278190080
608.1499 932.02716 775.1554 4278190080
148.05293 545.00842 92.093155 4278190080
394.0134 731.36414 873.24445 4278190080
