# .PCD v0.7 - Point Cloud Data file format
VERSION 0.7
FIELDS x y z rgb
SIZE 4 4 4 4
TYPE F F F U
COUNT 1 1 1 1
WIDTH 1175
HEIGHT 1
VIEWPOINT 0 0 0 1 0 0 0
POINTS 1175
DATA ascii
179.63866 775.18079 710.4353 4278190080
317.14096 739.34485 770.92712 4278190080
359.08475 451.90881 264.42889 4278190080
840.38306 777.60907 814.92303 4278190080
822.38397 508.10474 173.31917 4278190080
714.49591 19.405336 755.33282 4278190080
882.44775 988.88281 297.16721 4278190080
63.379196 612.77332 257.96109 4278190080
873.23804 475.59631 665.65491 4278190080
524.06885 511.09464 822.38562 4278190080
667.22485 690.73328 573.56641 4278190080
353.66013 1007.8743 288.91125 4278190080
100.58728 342.95898 740.82007 4278190080
365.01617 159.34203 494.42914 4278190080
155.93919 981.72601 1002.5339 4278190080
329.25836 672.22192 1021.9392 4278190080
60.591198 530.66968 986.82202 4278190080
357.75839 594.04883 575.59534 4278190080
615.71948 443.28687 27.191681 4278190080
257.37439 967.35571 538.28632 4278190080
55.759995 610.58057 205.01959 4278190080
629.32642 964.24072 188.89383 4278190080
918.23761 40.827984 531.85284 4278190080
635.05768 405.84415 691.19482 4278190080
105.48685 561.78333 648.92084 4278190080
84.020737 891.04169 297.14276 4278190080
81.959961 951.63287 827.81244 4278190080
44.781994 285.3913 397.86127 4278190080
620.37732 901.11078 841.14813 4278190080
647.56903 134.48515 784.50385 4278190080
161.85535 190.24515 371.08441 4278190080
366.87494 819.57153 311.3251 4278190080
555.7688 713.80914 352.15308 4278190080
63.621597 324.86688 757.99725 4278190080
754.81647 430.35373 295.78058 4278190080
379.7373 514.37445 162.82227 4278190080
676.88007 596.33441 90.455162 4278190080
480.6925 641.11639 375.84647 4278190080
878.55377 237.49376 252.95724 4278190080
695.7019 885.06281 387.44241 4278190080
456.20575 22.918121 577.68756 4278190080
827.29016 389.79306 373.25909 4278190080
114.61526 945.56183 63.068264 4278190080
466.76834 1009.1834 387.93515 4278190080
200.76559 739.99988 818.28888 4278190080
496.54617 95.737183 308.6633 4278190080
659.36841 772.61725 904.99768 4278190080
749.82361 229.30975 522.11414 4278190080
101.67007 83.863541 759.60785 4278190080
354.62732 779.56543 620.67065 4278190080
742.0697 211.77119 643.58875 4278190080
295.75726 15.061352 9.3818293 4278190080
669.01636 129.67661 954.94366 4278190080
732.08459 596.44495 940.12708 4278190080
96.019745 797.21057 656.12695 4278190080
914.30859 269.75671 751.86414 4278190080
198.97189 929.12512 500.48141 4278190080
79.969612 654.94873 729.7912 4278190080
602.08374 756.61884 813.65472 4278190080
337.69159 87.246132 569.22015 4278190080
958.36224 829.31586 780.99133 4278190080
577.95099 101.0731 796.05273 4278190080
587.33282 770.08948 925.72931 4278190080
518.27649 478.17407 498.17429 4278190080
434.40359 574.19379 271.38483 4278190080
66.530556 464.50241 541.14154 4278190080
818.39471 663.4743 446.26669 4278190080
294.87613 743.44391 77.215454 4278190080
0.66729355 321.52765 833.83429 4278190080
814.32202 659.21924 921.08038 4278190080
359.54218 593.58148 726.39624 4278190080
116.53353 147.53247 827.46936 4278190080
912.58624 734.8653 573.55878 4278190080
814.31555 229.14182 27.732859 4278190080
288.48984 663.54541 601.9267 4278190080
559.87469 730.07593 42.429077 4278190080
77.01622 524.47064 705.90338 4278190080
523.2829 819.3468 425.34732 4278190080
600.49835 820.0141 746.87494 4278190080
410.33264 610.33606 382.09418 4278190080
307.41306 969.87823 975.67566 4278190080
9.8092861 62.411781 99.208138 4278190080
837.27863 974.99805 834.07343 4278190080
386.83743 765.3136 39.21526 4278190080
414.57028 29.80344 702.76068 4278190080
1016.4969 589.6781 408.83661 4278190080
34.926033 666.69434 933.30725 4278190080
740.82941 165.97725 728.65405 4278190080
142.17674 766.47559 524.66815 4278190080
889.0517 152.80826 111.00423 4278190080
247.14589 460.22128 56.882477 4278190080
198.82155 470.03058 119.29426 4278190080
298.02969 283.3092 70.292282 4278190080
108.10313 670.14667 835.6059 4278190080
147.31839 60.716927 865.4093 4278190080
850.07904 53.213882 431.08743 4278190080
234.91565 88.139915 73.781769 4278190080
144.22293 828.96936 239.75902 4278190080
872.87701 971.14606 1006.2346 4278190080
373.54514 836.19775 135.04289 4278190080
484.54935 59.343655 595.26416 4278190080
541.43182 258.16519 41.294769 4278190080
660.72607 556.19489 324.60397 4278190080
731.01837 664.29803 994.75061 4278190080
542.62427 811.61639 31.467556 4278190080
384.03354 637.69543 84.681442 4278190080
815.12097 872.61108 172.82137 4278190080
888.90277 1016.834 1001.7907 4278190080
104.66177 865.711 948.93677 4278190080
86.896408 215.25612 761.13452 4278190080
221.9393 699.80548 820.47821 4278190080
817.20349 217.2373 54.643402 4278190080
858.49823 877.96338 610.83826 4278190080
159.10223 584.98175 251.13628 4278190080
129.85286 103.60598 38.752678 4278190080
161.32042 487.63953 676.44812 4278190080
246.00186 278.76053 525.0592 4278190080
418.82321 143.66327 517.89319 4278190080
396.61392 248.32504 359.60422 4278190080
321.55069 335.22144 574.86035 4278190080
58.685253 557.16077 250.66582 4278190080
879.16345 350.36423 467.90311 4278190080
933.80688 184.86249 321.86649 4278190080
520.64514 343.96472 906.84821 4278190080
771.78143 473.8176 1010.4542 4278190080
810.53412 635.138 474.09375 4278190080
462.98221 881.13989 752.85425 4278190080
988.04144 275.9631 896.51752 4278190080
481.93463 672.57703 120.84258 4278190080
841.53888 994.12775 456.06403 4278190080
392.3992 28.812979 1013.2248 4278190080
643.065 907.97644 339.58899 4278190080
86.968109 817.78333 524.45148 4278190080
408.83459 314.42844 868.4162 4278190080
291.68283 62.209854 318.2338 4278190080
278.13705 872.74396 953.37183 4278190080
752.23083 311.72617 810.51166 4278190080
481.08508 275.76758 62.474773 4278190080
353.60263 757.70221 735.05182 4278190080
474.44519 575.24109 705.1795 4278190080
930.50922 967.64026 733.99249 4278190080
919.73401 586.70526 617.96893 4278190080
235.32301 673.6734 411.75223 4278190080
759.77448 58.507973 726.18066 4278190080
604.19067 350.1908 788.3905 4278190080
922.4245 628.32788 637.13446 4278190080
851.79633 356.55869 948.86066 4278190080
638.30798 837.64374 200.62823 4278190080
700.78278 167.24637 958.33044 4278190080
411.83453 641.69159 509.57153 4278190080
93.014069 548.20081 453.21179 4278190080
827.00659 443.93481 15.917043 4278190080
420.97549 679.25781 689.59039 4278190080
832.72772 415.03235 748.09839 4278190080
534.90839 1019.223 74.2892 4278190080
299.29892 917.64752 702.61707 4278190080
936.43341 745.44385 35.175739 4278190080
861.29407 359.7518 872.81952 4278190080
37.922276 36.534569 16.065868 4278190080
996.25275 448.36911 657.75745 4278190080
481.82425 541.38318 181.95827 4278190080
935.03601 344.38974 625.89307 4278190080
950.95306 765.36523 281.15094 4278190080
616.54352 574.09296 696.18329 4278190080
340.64188 85.001366 691.40631 4278190080
414.93109 384.30029 585.05383 4278190080
93.548141 296.73367 306.49768 4278190080
128.72388 134.02773 666.24951 4278190080
1001.5434 171.95 702.78406 4278190080
1017.6093 144.20273 127.15317 4278190080
651.3667 626.02698 668.53638 4278190080
833.32495 537.06299 1012.9261 4278190080
435.21805 464.01608 754.29132 4278190080
716.36896 56.559574 304.38431 4278190080
388.55222 397.20145 389.38568 4278190080
55.958523 812.13251 773.68597 4278190080
641.01233 905.68066 46.419662 4278190080
947.51001 10.404549 180.44739 4278190080
589.75952 1011.9479 352.3974 4278190080
268.54355 1005.5571 496.60013 4278190080
395.69672 632.92383 98.627106 4278190080
40.233078 442.24878 635.69012 4278190080
29.159178 877.46686 75.7062 4278190080
783.4505 569.83582 132.26578 4278190080
63.834846 958.388 529.46722 4278190080
453.22055 1014.3466 317.59976 4278190080
202.90651 631.35889 199.28043 4278190080
249.32617 554.8689 209.68498 4278190080
429.77356 120.62841 197.6329 4278190080
782.17096 389.17197 179.19006 4278190080
254.77109 784.86871 812.11389 4278190080
353.39819 825.10175 230.36269 4278190080
989.08832 854.26093 83.829521 4278190080
40.79451 613.71149 653.66528 4278190080
173.06029 677.54633 588.05334 4278190080
702.52753 106.76685 578.39984 4278190080
1020.1273 309.67337 185.75876 4278190080
195.40771 558.99957 740.62769 4278190080
405.09268 988.77313 861.2561 4278190080
602.72559 746.94409 226.42804 4278190080
781.91565 1001.7151 1011.2968 4278190080
570.02954 331.11334 812.3985 4278190080
800.39227 296.20166 642.65942 4278190080
884.22174 336.99619 232.37093 4278190080
513.88708 510.05646 909.91724 4278190080
77.940407 188.58398 1016.6841 4278190080
656.34027 184.71126 302.35745 4278190080
842.099 380.11899 861.35699 4278190080
558.72668 785.21167 826.13013 4278190080
395.98276 363.93729 549.07422 4278190080
622.41083 121.85293 526.78937 4278190080
609.70758 691.88251 857.90271 4278190080
398.10605 468.27472 130.10437 4278190080
16.765512 328.49649 467.10052 4278190080
249.13643 842.38354 977.15698 4278190080
135.05367 920.32397 141.74098 4278190080
127.73776 552.66425 326.45224 4278190080
430.09521 370.76328 706.57123 4278190080
267.45224 929.48999 467.7829 4278190080
69.582344 301.47275 831.72015 4278190080
618.65656 923.88354 953.57312 4278190080
121.44589 509.59113 621.45557 4278190080
979.34857 907.6972 65.730309 4278190080
85.452957 924.46271 394.22681 4278190080
552.55347 149.59914 212.61038 4278190080
505.71048 284.6528 108.93436 4278190080
647.45148 412.39056 661.59863 4278190080
973.90375 842.48578 8.3618975 4278190080
656.47498 85.938019 937.85187 4278190080
100.25785 155.52037 215.32462 4278190080
931.97803 774.17688 115.20818 4278190080
861.55115 895.6228 624.79932 4278190080
459.00671 850.97137 508.49649 4278190080
524.737 936.42432 408.9592 4278190080
918.96381 464.97784 558.55835 4278190080
107.57421 970.68835 843.21112 4278190080
216.50858 594.13983 231.60168 4278190080
878.10718 544.04352 50.087479 4278190080
886.46906 176.51848 136.0255 4278190080
800.32098 276.77634 291.54587 4278190080
1015.6456 184.75436 41.722771 4278190080
106.85376 22.305496 937.34558 4278190080
731.65308 481.31223 764.31696 4278190080
216.14957 1006.0493 676.74127 4278190080
625.10876 901.01306 117.71913 4278190080
159.66707 1008.5873 64.407463 4278190080
1002.8782 201.09584 658.5473 4278190080
210.47989 55.203033 178.59081 4278190080
260.56735 941.67212 355.10928 4278190080
396.59286 717.99304 631.88562 4278190080
688.13873 709.63867 816.64001 4278190080
729.86151 816.49243 838.9455 4278190080
643.20703 524.14545 296.25769 4278190080
383.52402 740.29504 278.30695 4278190080
36.265293 341.40378 155.32001 4278190080
153.98442 501.07086 139.90729 4278190080
218.39189 479.94904 341.00314 4278190080
876.93915 690.42889 396.20618 4278190080
31.529978 950.99628 313.8783 4278190080
386.63928 323.58914 7.8713522 4278190080
1018.5249 1011.7278 717.51001 4278190080
811.16492 717.58936 510.00241 4278190080
626.11035 336.79642 10.147867 4278190080
922.3681 720.32043 750.44287 4278190080
176.67502 756.58569 67.846672 4278190080
331.99503 910.57013 568.91754 4278190080
471.90231 104.96204 24.866568 4278190080
812.90546 981.90118 715.29547 4278190080
185.11162 1013.4312 642.29175 4278190080
498.9899 376.07047 965.88092 4278190080
506.86124 370.59534 953.60876 4278190080
200.37125 157.76024 647.19818 4278190080
710.37366 783.87061 983.99457 4278190080
720.52148 682.23871 680.315 4278190080
446.96442 858.9137 412.90073 4278190080
514.8111 166.90875 299.47089 4278190080
59.728607 638.81104 404.43292 4278190080
84.595177 427.71652 362.33411 4278190080
799.89069 612.82812 351.76529 4278190080
418.18243 87.818024 727.83575 4278190080
360.06335 594.67926 74.431091 4278190080
289.67215 795.05054 232.19133 4278190080
936.8703 481.42416 1016.062 4278190080
896.86493 177.94568 674.30066 4278190080
553.17993 624.9101 509.21436 4278190080
966.08063 115.72117 676.12311 4278190080
241.55151 175.44977 290.93417 4278190080
645.98444 260.04495 718.6507 4278190080
1008.3185 35.935616 307.47882 4278190080
336.08383 454.11804 395.29684 4278190080
39.919559 814.1814 989.97607 4278190080
114.35065 79.853577 761.02661 4278190080
346.54199 1016.7239 218.45079 4278190080
338.60394 889.58881 396.39645 4278190080
1012.9046 418.76871 1021.3066 4278190080
498.11896 360.84933 113.02772 4278190080
150.24207 602.40088 288.47748 4278190080
441.17624 224.38527 548.52246 4278190080
135.8269 208.70381 584.45807 4278190080
443.30573 544.78766 14.576114 4278190080
838.60254 584.70721 828.75751 4278190080
804.57867 699.05786 908.61108 4278190080
541.60529 21.599819 901.33502 4278190080
760.05609 360.20374 766.92377 4278190080
132.45255 349.10834 161.69247 4278190080
129.75909 847.22729 522.54181 4278190080
242.7868 997.46936 100.94267 4278190080
531.26428 414.64557 325.32794 4278190080
55.786747 550.47247 534.03174 4278190080
640.24481 993.7782 54.819382 4278190080
654.82092 808.38074 639.52655 4278190080
459.57846 588.95941 314.58441 4278190080
344.18954 106.56467 336.18423 4278190080
221.52455 866.62073 696.388 4278190080
988.4483 999.0733 21.496309 4278190080
126.14081 104.83237 868.72357 4278190080
648.68262 347.61917 842.19293 4278190080
749.62531 878.88348 232.83847 4278190080
50.953239 934.67023 783.31097 4278190080
584.98499 550.91504 753.08911 4278190080
639.80438 181.73595 537.46985 4278190080
255.33095 641.31439 102.42926 4278190080
569.91534 985.50397 208.99393 4278190080
906.09961 183.0285 51.614674 4278190080
578.48755 147.47684 26.687954 4278190080
599.98389 273.61765 131.52032 4278190080
444.70746 922.30023 479.1395 4278190080
262.90039 647.92554 334.02301 4278190080
495.73886 698.87878 244.69324 4278190080
255.0498 259.86377 795.60828 4278190080
1008.1389 899.66815 977.34424 4278190080
521.60883 130.9991 594.65863 4278190080
624.03809 700.91449 556.1626 4278190080
833.03198 583.01404 739.1911 4278190080
884.64667 137.50163 886.66791 4278190080
911.33466 737.48553 136.28554 4278190080
18.854958 158.19298 34.585804 4278190080
497.99448 421.09335 682.51135 4278190080
832.01746 916.83221 357.39014 4278190080
52.710697 147.882 617.25391 4278190080
848.31897 132.02094 492.92209 4278190080
801.66321 653.62976 623.9212 4278190080
372.32181 253.66782 300.83566 4278190080
928.48438 62.699825 883.84973 4278190080
643.67548 947.3465 1021.3514 4278190080
506.34335 834.68115 734.83685 4278190080
642.62891 853.53607 893.02985 4278190080
677.21472 327.53058 290.1232 4278190080
335.72607 135.54803 182.95541 4278190080
693.11621 188.25873 330.83743 4278190080
286.37015 12.577694 462.85837 4278190080
779.29224 814.24091 92.488113 4278190080
379.21344 162.56268 346.15594 4278190080
680.04913 67.047066 408.85577 4278190080
539.89886 710.72253 332.20227 4278190080
537.25018 193.06589 142.88341 4278190080
248.08707 835.69482 996.41949 4278190080
117.11692 488.90952 299.95007 4278190080
407.24014 824.63556 435.49808 4278190080
590.19556 493.7518 623.75684 4278190080
921.03296 780.12195 636.33453 4278190080
359.89133 535.41418 426.57538 4278190080
452.37946 914.62762 589.13806 4278190080
798.5354 570.67676 656.18512 4278190080
183.39114 86.575584 342.90765 4278190080
515.59338 623.82581 535.97357 4278190080
658.47681 871.91284 347.66833 4278190080
630.8963 989.02979 836.57788 4278190080
930.84637 372.2699 637.21344 4278190080
342.34445 962.46545 106.96523 4278190080
966.10126 859.49841 887.08716 4278190080
578.43579 195.38977 398.50134 4278190080
1005.0112 647.76923 289.129 4278190080
570.14923 422.3046 859.80573 4278190080
202.33438 605.69574 946.38135 4278190080
545.24207 97.289162 546.20709 4278190080
57.215599 755.76599 394.11993 4278190080
404.88394 362.66229 359.14972 4278190080
217.46181 269.50864 731.41962 4278190080
854.67523 611.85309 669.88507 4278190080
961.64044 553.95435 505.38348 4278190080
824.7276 108.39016 700.77325 4278190080
199.22897 89.401329 324.54248 4278190080
488.35797 659.5506 746.84711 4278190080
324.1637 861.88495 328.54285 4278190080
246.54503 383.12701 425.832 4278190080
792.75214 440.34262 157.59798 4278190080
162.87207 845.22656 520.26025 4278190080
522.02179 38.688362 789.76892 4278190080
229.44141 893.36359 377.62201 4278190080
899.32648 831.00403 931.57642 4278190080
380.70996 631.73169 15.966547 4278190080
57.483231 830.96063 105.36787 4278190080
382.0257 295.31863 764.91846 4278190080
104.8728 619.4823 602.80341 4278190080
433.41562 866.02734 985.93042 4278190080
859.24762 634.77948 402.27304 4278190080
1016.8456 797.65155 223.4996 4278190080
513.1059 295.67337 262.18796 4278190080
278.87479 525.11475 131.55156 4278190080
656.49677 400.44125 962.5556 4278190080
564.07318 781.15125 570.28729 4278190080
580.03973 838.63446 377.24792 4278190080
685.40759 196.66016 672.56653 4278190080
426.32605 301.53296 268.04889 4278190080
5.1294751 734.94861 110.07623 4278190080
991.05988 570.19623 744.85571 4278190080
369.33295 563.04181 518.50726 4278190080
592.83258 52.147686 814.18066 4278190080
855.02051 331.02246 315.29541 4278190080
986.57208 987.51923 715.73663 4278190080
925.12769 527.59241 472.88788 4278190080
471.41498 83.632156 287.52234 4278190080
848.6629 769.03973 484.1825 4278190080
497.22949 171.36581 785.71545 4278190080
765.27838 176.49529 496.66403 4278190080
875.35461 143.55519 42.860233 4278190080
596.21033 512.88812 605.90204 4278190080
90.717598 81.720695 658.04974 4278190080
904.89825 936.74121 989.0722 4278190080
196.19365 899.31329 952.59143 4278190080
911.9303 800.44098 456.1839 4278190080
360.81818 247.85599 539.81604 4278190080
648.34052 72.518913 284.8558 4278190080
108.52299 569.74841 456.22162 4278190080
894.2384 311.02676 632.71692 4278190080
366.90244 162.38135 776.27209 4278190080
409.7627 758.59167 265.16022 4278190080
1015.6647 849.30927 346.88092 4278190080
649.71448 730.20752 259.62216 4278190080
614.78668 926.40118 134.93546 4278190080
543.37811 814.33148 935.37646 4278190080
999.56201 151.14963 159.23244 4278190080
515.37805 799.49011 231.75136 4278190080
800.23389 908.01312 801.49976 4278190080
232.45547 778.25153 88.526505 4278190080
865.17236 121.15399 250.90785 4278190080
617.44446 530.91669 1009.4995 4278190080
882.60468 522.58142 834.80878 4278190080
205.48561 148.29588 541.0163 4278190080
465.10776 763.08258 443.41748 4278190080
600.04321 282.46072 233.74893 4278190080
511.41968 258.02274 384.89856 4278190080
670.6521 773.40082 160.38869 4278190080
902.40344 549.63464 44.40181 4278190080
679.9032 782.09015 822.65338 4278190080
768.42969 623.26251 943.80731 4278190080
1019.3376 216.70697 450.724 4278190080
1004.8371 75.311653 973.30542 4278190080
815.64587 280.79727 97.601303 4278190080
332.6622 745.90503 860.6839 4278190080
776.07965 321.94824 119.14458 4278190080
1009.8286 833.36792 377.16733 4278190080
370.72714 480.02005 126.56812 4278190080
531.11584 358.42349 676.20282 4278190080
575.51764 14.326714 434.29294 4278190080
374.17099 782.75641 33.55545 4278190080
293.97833 778.09399 250.26242 4278190080
744.70233 758.93109 325.57407 4278190080
694.00775 550.57697 606.37134 4278190080
791.60907 883.2392 328.2764 4278190080
628.29291 635.31885 650.22467 4278190080
747.4375 621.14746 459.59256 4278190080
100.60484 991.87457 939.61261 4278190080
227.17296 498.99042 274.0361 4278190080
903.37573 50.508072 288.36282 4278190080
313.6687 424.67908 47.119244 4278190080
347.22415 718.65741 825.21326 4278190080
597.48657 439.35977 560.14435 4278190080
923.06061 109.36753 86.721306 4278190080
505.43198 900.97662 969.96051 4278190080
833.70837 505.26953 581.2793 4278190080
459.93301 228.70705 178.42676 4278190080
919.52557 329.31189 146.30133 4278190080
835.13818 556.48486 645.29175 4278190080
85.174286 435.8606 695.7998 4278190080
373.53711 749.5293 96.478897 4278190080
420.65634 72.753448 815.13629 4278190080
221.8696 670.23999 230.49608 4278190080
782.01392 569.30066 339.86362 4278190080
868.73523 50.732632 216.84021 4278190080
814.69568 884.44098 722.10974 4278190080
371.97504 320.37402 950.81677 4278190080
550.40179 215.8996 256.12869 4278190080
696.70312 27.037788 812.61353 4278190080
317.99487 112.21207 224.47414 4278190080
1013.7947 485.74918 974.00342 4278190080
86.273613 906.40552 22.756895 4278190080
901.40991 104.27512 692.99689 4278190080
107.90601 886.28906 238.29756 4278190080
447.76962 731.02429 289.03018 4278190080
664.6098 521.71997 149.47119 4278190080
362.71957 893.69501 469.84521 4278190080
289.53638 420.0968 685.74481 4278190080
545.66504 92.799911 712.78259 4278190080
334.27859 410.7948 824.99469 4278190080
558.75275 400.58951 286.74387 4278190080
508.75616 486.8631 169.1494 4278190080
531.51306 364.27304 273.42453 4278190080
200.50998 472.17905 135.71358 4278190080
438.80753 919.94867 866.73785 4278190080
727.83771 560.55847 364.45782 4278190080
877.3089 923.27802 234.15283 4278190080
323.15414 188.81439 654.24963 4278190080
1008.8989 734.47943 747.04956 4278190080
697.68158 44.758038 133.84433 4278190080
498.67624 603.51074 534.43384 4278190080
785.4201 88.266953 1021.2969 4278190080
954.56952 619.78003 361.56998 4278190080
203.99405 820.28998 833.74902 4278190080
339.70764 235.09755 729.69763 4278190080
182.44548 962.93524 266.25613 4278190080
546.90332 816.2442 165.53415 4278190080
781.05615 115.39832 354.34854 4278190080
411.30579 100.29727 64.828003 4278190080
134.3553 797.97882 109.58604 4278190080
268.19965 272.65509 713.0968 4278190080
802.63348 34.075199 801.36377 4278190080
799.93042 988.64471 397.1438 4278190080
137.50037 168.63878 193.43379 4278190080
971.24939 508.34641 428.53134 4278190080
676.94702 690.79193 367.46661 4278190080
943.20312 213.69522 159.7108 4278190080
84.737297 994.75134 275.1091 4278190080
439.08585 382.05713 375.40637 4278190080
503.91385 516.41241 149.38522 4278190080
613.49988 784.61206 422.04031 4278190080
302.59671 563.24554 456.11551 4278190080
79.96048 339.17593 420.76022 4278190080
477.10428 476.67627 589.39899 4278190080
670.53809 423.92566 73.745415 4278190080
75.069412 76.872665 764.53729 4278190080
442.53601 1020.0758 978.23254 4278190080
602.24683 80.813103 948.98389 4278190080
877.35596 519.89893 307.04102 4278190080
228.76231 1023.8128 823.45349 4278190080
378.14752 613.31268 584.06555 4278190080
800.18787 915.90942 123.31107 4278190080
232.30333 995.86987 462.487 4278190080
653.06354 448.97418 939.16327 4278190080
218.46255 95.512238 339.08893 4278190080
292.20798 170.58165 415.96158 4278190080
32.745293 613.11768 412.03741 4278190080
1010.9778 191.36449 492.85049 4278190080
935.96173 44.720417 1012.7495 4278190080
219.00275 273.48273 1012.5623 4278190080
18.456223 651.63025 601.87494 4278190080
602.52179 427.81812 493.78439 4278190080
725.83282 660.12146 465.6543 4278190080
164.31982 289.185 914.62848 4278190080
79.483101 507.64755 1010.1407 4278190080
418.57202 799.85553 156.72234 4278190080
834.53363 832.60083 769.84003 4278190080
222.57101 819.57861 961.20447 4278190080
715.42151 731.54034 1005.9249 4278190080
704.17096 950.54309 255.40765 4278190080
692.73322 968.99933 907.0379 4278190080
270.60822 547.52112 310.85602 4278190080
764.39258 249.35394 970.97748 4278190080
206.04688 413.67377 236.16248 4278190080
96.675323 493.15686 743.81 4278190080
82.81601 911.72888 519.66553 4278190080
239.53835 722.26251 328.26636 4278190080
1009.3784 944.8335 123.84501 4278190080
946.58289 636.255 855.38538 4278190080
928.50775 316.42599 781.92847 4278190080
159.91542 1009.1592 726.9278 4278190080
42.953346 255.76744 250.44893 4278190080
353.80939 1020.16 499.80286 4278190080
300.78687 202.20691 913.47662 4278190080
536.94934 298.88223 382.63348 4278190080
256.75934 381.69824 270.36237 4278190080
776.42487 621.23657 992.62488 4278190080
80.691261 606.61493 913.45837 4278190080
204.53627 529.19781 525.71338 4278190080
35.921638 433.7056 842.1394 4278190080
817.8501 593.62103 827.29865 4278190080
520.77795 636.57434 59.06609 4278190080
771.22687 990.38373 55.226124 4278190080
247.02974 267.17059 257.43304 4278190080
136.50636 804.11993 556.31525 4278190080
519.13983 36.879261 938.01349 4278190080
789.5022 813.30414 535.25012 4278190080
758.12708 893.99542 117.86505 4278190080
647.58545 74.531685 647.06287 4278190080
149.29886 110.45332 56.768452 4278190080
991.43823 928.30347 650.38947 4278190080
794.73688 425.08139 262.96384 4278190080
853.80298 172.30826 229.34756 4278190080
909.02911 419.33798 496.51816 4278190080
142.46214 555.84436 276.63806 4278190080
698.7774 50.9842 313.51733 4278190080
612.79089 840.48639 102.8215 4278190080
124.041 574.61346 996.81689 4278190080
241.90605 198.19894 47.348598 4278190080
888.96893 347.4978 157.80193 4278190080
945.73737 314.93607 62.105362 4278190080
572.12683 85.672974 487.18677 4278190080
835.09064 939.47595 659.495 4278190080
40.438217 824.50507 54.833008 4278190080
536.95636 966.96722 610.67737 4278190080
813.59448 641.74463 661.66156 4278190080
103.11179 230.53555 478.14798 4278190080
205.93329 354.57657 28.761471 4278190080
178.7502 596.4826 226.96042 4278190080
226.0988 461.45151 574.45825 4278190080
383.90073 383.18887 889.39429 4278190080
446.00607 955.31573 975.06726 4278190080
933.19281 766.40637 890.54321 4278190080
568.68787 806.8446 691.04834 4278190080
623.52087 319.80096 634.01556 4278190080
210.19821 109.39541 251.76019 4278190080
871.8598 212.5072 482.29575 4278190080
326.00775 418.44049 836.87231 4278190080
354.76923 597.19067 409.35492 4278190080
581.72961 823.28949 870.80646 4278190080
132.18787 183.1902 229.99532 4278190080
1021.5822 629.19629 161.31102 4278190080
972.64941 538.3891 927.71741 4278190080
839.19263 83.07695 710.56195 4278190080
506.24094 706.59778 6.3629079 4278190080
116.25651 916.79602 115.75832 4278190080
368.01669 764.65582 328.2655 4278190080
850.31244 66.663544 746.70599 4278190080
663.18475 421.43277 319.89667 4278190080
48.539684 1003.1624 119.18616 4278190080
919.34613 111.35027 302.37634 4278190080
125.34142 108.93243 931.57263 4278190080
286.65244 57.581833 445.96173 4278190080
190.36981 896.77448 529.0387 4278190080
900.93176 379.01541 211.63649 4278190080
907.29468 495.27191 104.43251 4278190080
1023.053 863.28864 869.08832 4278190080
327.31851 689.60107 935.75183 4278190080
50.024506 328.78586 333.18463 4278190080
369.92117 377.32553 312.34702 4278190080
489.10733 272.67166 423.6973 4278190080
791.4837 398.01309 532.62976 4278190080
699.05634 684.66553 590.21155 4278190080
121.01806 875.03534 462.98602 4278190080
650.05676 751.9671 842.00146 4278190080
861.69324 635.26178 313.27338 4278190080
966.12573 634.31476 152.56201 4278190080
811.21405 961.6333 842.16309 4278190080
722.96588 1011.6578 146.94897 4278190080
32.150524 357.57898 524.27454 4278190080
344.49756 846.68634 796.94617 4278190080
768.19489 614.17004 170.95926 4278190080
276.82458 289.22635 855.62476 4278190080
867.03613 410.24438 706.6601 4278190080
306.02219 36.301147 434.62723 4278190080
124.02365 897.99438 45.889027 4278190080
437.29703 840.12012 680.2038 4278190080
589.85907 627.33423 617.8371 4278190080
408.02216 326.30011 605.49493 4278190080
554.97113 358.45062 963.07391 4278190080
55.245659 702.94818 785.76019 4278190080
852.19183 447.14304 375.93024 4278190080
1023.1511 723.96765 665.15656 4278190080
854.77588 567.00378 51.40097 4278190080
537.43604 873.026 87.702118 4278190080
972.06323 997.04962 985.69653 4278190080
1017.9523 410.34668 801.81665 4278190080
674.15607 1000.2057 405.15085 4278190080
267.99319 384.22791 731.45093 4278190080
873.4881 939.19904 65.901581 4278190080
812.56201 994.4447 768.84979 4278190080
574.3222 822.63654 191.9928 4278190080
950.25244 821.78766 915.96045 4278190080
591.409 652.56354 458.96423 4278190080
642.81 165.99953 307.9902 4278190080
730.51208 114.06277 281.03983 4278190080
692.20862 108.01505 691.38654 4278190080
470.02524 782.17114 667.59222 4278190080
875.17609 26.16433 27.820129 4278190080
582.62708 899.6524 967.01917 4278190080
648.52863 688.21442 937.46387 4278190080
393.37839 238.53662 736.1004 4278190080
585.37122 164.78906 533.888 4278190080
477.33163 756.19806 162.45152 4278190080
936.29584 375.00803 328.45105 4278190080
220.28606 81.520126 442.51382 4278190080
501.3259 773.7287 550.52887 4278190080
168.71242 219.75398 308.70001 4278190080
836.30463 70.930077 334.86432 4278190080
864.12476 653.55713 210.51675 4278190080
807.14392 278.08575 898.7312 4278190080
720.60779 671.46417 113.26781 4278190080
432.70816 232.83537 278.05688 4278190080
966.59619 710.16699 10.254938 4278190080
105.04771 622.46283 385.26297 4278190080
433.49875 842.7489 466.78311 4278190080
876.01257 320.07483 216.51183 4278190080
402.54144 488.78723 436.26581 4278190080
711.24146 301.09189 507.19589 4278190080
22.105766 141.21666 136.75302 4278190080
232.62253 948.3606 414.83881 4278190080
107.35371 644.96838 62.302959 4278190080
220.62152 53.676563 295.13834 4278190080
498.67841 1020.2728 1005.3053 4278190080
508.93335 101.32046 603.76819 4278190080
894.19629 534.81921 422.51709 4278190080
336.9794 386.83179 742.59192 4278190080
553.49127 789.37323 207.37915 4278190080
989.75708 476.61469 508.47104 4278190080
472.95294 498.72043 649.68768 4278190080
609.70599 731.34296 574.04828 4278190080
0.54476213 838.69666 195.01668 4278190080
62.847721 35.318207 248.69324 4278190080
357.98605 533.99658 244.96599 4278190080
339.29138 18.929939 346.28644 4278190080
943.05957 913.12628 881.10565 4278190080
341.57666 226.10567 243.93745 4278190080
60.168583 779.59692 9.3106909 4278190080
267.54773 745.35394 485.92535 4278190080
776.01874 194.30692 984.64581 4278190080
401.70645 804.01288 691.98877 4278190080
975.7547 804.55768 506.68546 4278190080
146.77139 867.4054 542.00366 4278190080
395.46463 201.39142 52.000263 4278190080
640.4306 540.6828 70.930206 4278190080
986.71704 459.74237 984.05646 4278190080
843.82275 801.31903 186.16212 4278190080
63.760189 861.48761 965.75903 4278190080
73.070877 105.03533 687.11304 4278190080
558.99622 881.05408 881.41992 4278190080
519.64203 258.76053 661.4328 4278190080
187.63083 210.51526 441.99048 4278190080
694.31628 357.28665 285.39584 4278190080
212.31995 752.75128 486.78726 4278190080
264.32019 369.18192 3.4700541 4278190080
335.2504 331.89899 463.2124 4278190080
295.30685 151.72171 240.53143 4278190080
481.46899 215.4819 78.019035 4278190080
423.22803 288.5528 183.05437 4278190080
86.341034 847.54901 40.108456 4278190080
967.76099 343.19107 298.86899 4278190080
605.19379 530.8219 509.38425 4278190080
23.184242 201.13818 866.6709 4278190080
308.58008 413.45813 595.42218 4278190080
795.36731 677.77832 964.60406 4278190080
798.8374 1013.0287 272.50308 4278190080
238.0498 284.3356 424.22479 4278190080
478.58124 765.80457 639.70673 4278190080
556.60028 165.03262 928.25946 4278190080
739.65466 251.37366 751.80853 4278190080
779.76306 195.13461 70.999603 4278190080
54.632076 800.32837 601.82153 4278190080
564.0163 823.51263 802.95972 4278190080
406.68719 108.09271 192.41783 4278190080
1002.1094 903.46008 870.19617 4278190080
942.7135 678.29742 859.22491 4278190080
191.21655 916.34723 119.56052 4278190080
615.44135 370.9285 885.36511 4278190080
231.14806 927.52875 26.397732 4278190080
135.40755 643.18341 277.77139 4278190080
887.21606 398.9465 472.90601 4278190080
958.2157 453.57855 249.23439 4278190080
536.03717 1017.5949 48.747028 4278190080
314.99689 400.2821 156.83974 4278190080
507.41473 378.39148 36.299801 4278190080
353.6109 297.10495 714.59723 4278190080
188.8358 488.3215 606.94452 4278190080
308.3963 79.762856 977.87299 4278190080
169.76141 310.91092 881.40173 4278190080
196.15915 446.31845 500.58514 4278190080
473.93054 309.53452 899.53162 4278190080
946.83655 243.7502 329.11023 4278190080
172.07094 779.78735 322.70511 4278190080
220.81796 70.784271 722.98718 4278190080
377.65771 578.19897 77.378662 4278190080
413.95752 931.80988 374.48361 4278190080
104.55476 96.645683 862.80511 4278190080
711.49927 405.04199 942.56799 4278190080
665.37225 574.80341 229.4789 4278190080
522.77399 770.96252 675.79736 4278190080
1023.3592 220.89308 985.33185 4278190080
898.89081 143.72963 205.08206 4278190080
204.00102 315.80057 984.86945 4278190080
526.70612 536.61853 31.653725 4278190080
225.69331 914.27625 609.85272 4278190080
303.07199 304.23373 517.6626 4278190080
677.5556 408.78848 614.30829 4278190080
516.36072 96.287743 1019.3503 4278190080
434.92871 761.65997 570.15369 4278190080
664.40759 260.43402 317.11624 4278190080
316.20496 259.79318 538.00934 4278190080
277.53683 134.68399 681.73895 4278190080
482.6189 338.68503 997.53949 4278190080
443.48834 865.39117 510.15802 4278190080
475.14206 67.084465 400.43427 4278190080
60.994781 370.15643 704.66797 4278190080
578.65741 23.712044 89.456474 4278190080
168.96568 540.07275 185.74422 4278190080
164.31596 975.00146 947.40424 4278190080
734.46967 615.40906 183.83823 4278190080
27.585884 931.61401 443.63141 4278190080
565.59521 185.15083 578.31543 4278190080
223.33417 667.76971 917.00043 4278190080
196.87367 87.258057 758.3916 4278190080
707.03174 562.40009 825.47607 4278190080
83.465973 623.3949 171.63249 4278190080
788.13397 178.05229 195.34454 4278190080
877.59045 347.01797 735.4173 4278190080
39.33466 511.33392 686.41876 4278190080
986.73889 221.80357 277.82785 4278190080
146.5771 249.38947 185.44185 4278190080
590.2085 814.98468 370.59268 4278190080
144.52393 14.318846 14.362406 4278190080
37.524353 211.19252 101.62046 4278190080
795.91595 918.22424 664.02057 4278190080
597.39197 1001.6902 263.41547 4278190080
769.02448 765.82416 441.46777 4278190080
964.36902 619.41461 788.48572 4278190080
675.78632 658.74927 275.81967 4278190080
338.20511 621.48816 497.62326 4278190080
616.03296 768.06525 747.0127 4278190080
801.47479 334.27377 537.99738 4278190080
148.06747 478.7977 552.31622 4278190080
162.42989 516.32202 763.50879 4278190080
264.05035 288.23798 657.73303 4278190080
928.07092 885.62994 635.42322 4278190080
167.4864 630.65442 377.24738 4278190080
608.95416 571.0235 996.66199 4278190080
373.43991 222.80981 631.41125 4278190080
649.25958 561.01489 228.89941 4278190080
122.88282 153.04785 996.96466 4278190080
869.89557 954.52264 307.23843 4278190080
383.89294 78.590134 786.03613 4278190080
936.20917 241.02002 278.35818 4278190080
675.71796 505.07037 566.59619 4278190080
309.45096 409.1413 428.22614 4278190080
944.87415 576.62769 34.880581 4278190080
298.12155 161.58186 605.90405 4278190080
270.78354 535.02179 828.71387 4278190080
902.19482 160.28133 365.72876 4278190080
107.09424 283.16415 518.77661 4278190080
80.058914 129.05969 449.29929 4278190080
387.29736 512.95264 527.8894 4278190080
149.3335 425.1618 768.90942 4278190080
427.69168 76.879753 249.9798 4278190080
994.28784 386.33069 659.12109 4278190080
398.51398 307.20486 211.74878 4278190080
433.39456 605.32642 373.33063 4278190080
15.298615 876.10999 908.35242 4278190080
844.01245 754.30475 44.633724 4278190080
185.74126 861.39899 327.79788 4278190080
704.51788 941.45795 456.85757 4278190080
129.81715 304.75528 969.81018 4278190080
657.70654 454.08878 370.97202 4278190080
402.616 881.78046 447.85178 4278190080
652.59576 852.0683 834.1825 4278190080
287.71686 226.58228 117.38733 4278190080
499.46564 659.97687 722.71375 4278190080
872.79626 675.27545 574.82367 4278190080
757.14868 495.28793 305.12848 4278190080
801.78241 681.02917 142.52748 4278190080
105.58026 361.54706 59.985409 4278190080
562.43787 491.36423 364.74069 4278190080
508.24805 125.07079 818.82947 4278190080
879.22009 527.68677 676.60992 4278190080
303.07184 156.28255 504.67822 4278190080
113.25431 443.99942 731.2605 4278190080
230.64163 943.46503 367.23737 4278190080
953.35535 792.26129 18.51281 4278190080
504.17908 525.40997 513.80072 4278190080
809.30756 303.19235 170.82993 4278190080
951.83502 408.77261 532.37701 4278190080
1011.8204 971.21045 1023.7412 4278190080
352.56113 455.4585 124.81199 4278190080
147.39059 310.67859 652.49878 4278190080
824.00049 613.75043 808.78131 4278190080
304.67874 727.00476 228.78073 4278190080
11.939253 957.64636 148.24577 4278190080
379.17661 887.00177 940.50708 4278190080
397.68942 367.18082 441.91705 4278190080
911.49017 152.48836 745.10944 4278190080
58.320084 80.323372 129.88202 4278190080
590.69708 68.143799 77.092476 4278190080
590.43829 420.70493 532.55096 4278190080
715.25024 568.09552 843.22955 4278190080
343.74902 368.09604 432.97998 4278190080
128.53033 672.77478 135.98471 4278190080
357.31107 684.71399 69.631088 4278190080
505.55682 39.890625 956.63281 4278190080
422.0639 437.58005 299.81366 4278190080
863.98096 325.07019 452.302 4278190080
585.09039 383.39029 532.62537 4278190080
714.97241 974.08734 600.76917 4278190080
792.06488 540.52563 1021.4741 4278190080
300.61584 231.77588 565.56964 4278190080
119.84541 575.5249 933.66565 4278190080
552.82538 704.05524 582.44043 4278190080
688.81012 37.366287 243.15443 4278190080
758.44116 542.9231 283.04504 4278190080
691.07404 964.98706 720.62512 4278190080
990.8877 804.96802 21.695301 4278190080
419.1897 366.05838 405.08557 4278190080
951.81506 57.030781 355.17294 4278190080
528.58423 849.09564 895.69855 4278190080
526.05835 125.7115 103.47443 4278190080
67.627983 245.55692 678.99933 4278190080
1001.2936 798.38232 359.05457 4278190080
559.73401 463.19238 396.42084 4278190080
802.88849 197.63359 939.34399 4278190080
61.933525 888.70764 880.33099 4278190080
782.55859 855.59528 661.29901 4278190080
804.25391 250.78499 3.3573933 4278190080
185.33951 178.60007 60.388172 4278190080
540.51245 707.18433 909.48383 4278190080
412.211 209.24268 11.195325 4278190080
515.68542 276.87067 256.75223 4278190080
170.68477 254.16428 31.134529 4278190080
529.73932 813.89832 494.32693 4278190080
926.16016 592.7868 691.96051 4278190080
841.50415 654.72034 556.66815 4278190080
697.83514 413.27893 388.26343 4278190080
335.13416 193.53285 639.0484 4278190080
338.49155 378.87238 817.6485 4278190080
398.87973 919.38483 500.83279 4278190080
284.36356 307.59579 710.0755 4278190080
295.55887 823.28125 986.94611 4278190080
552.3111 993.966 217.11041 4278190080
583.44562 499.70532 7.0087304 4278190080
53.772568 401.86551 599.79553 4278190080
745.73309 219.36964 230.51582 4278190080
278.40121 917.20483 643.79474 4278190080
666.66461 228.33897 837.32764 4278190080
281.71304 566.83051 192.19998 4278190080
75.361526 965.71027 87.584785 4278190080
576.19434 226.07382 395.18057 4278190080
262.26978 521.63269 194.46181 4278190080
225.21591 49.943821 164.4278 4278190080
442.32632 633.38947 664.13312 4278190080
449.33505 687.16205 41.998615 4278190080
25.130575 408.89511 261.36826 4278190080
255.64639 687.29633 154.57306 4278190080
899.44116 329.96094 382.91205 4278190080
712.7688 611.67401 949.74255 4278190080
904.96875 687.03552 891.45282 4278190080
992.55353 239.22984 93.526649 4278190080
363.73413 501.49963 615.15936 4278190080
558.19592 726.71558 665.10315 4278190080
722.62372 145.04187 274.49265 4278190080
362.75687 594.37695 961.65466 4278190080
404.75549 619.50751 346.5498 4278190080
666.12372 875.15393 9.8461113 4278190080
820.69678 750.59509 339.80707 4278190080
179.60884 439.36383 951.48108 4278190080
105.35141 320.33261 614.5166 4278190080
996.80426 288.88614 853.74646 4278190080
66.330887 652.6203 331.24606 4278190080
681.49023 186.81624 33.961613 4278190080
322.59341 909.44 179.00349 4278190080
597.08606 248.19685 773.38043 4278190080
534.74072 652.95233 368.88794 4278190080
881.29053 295.07608 220.04184 4278190080
891.13666 91.772873 970.6369 4278190080
206.94371 271.38171 386.00076 4278190080
134.42477 376.73312 706.33337 4278190080
748.94135 349.53735 995.21954 4278190080
578.68781 415.86826 623.83978 4278190080
909.93384 73.35849 810.65601 4278190080
943.89545 395.9519 696.09601 4278190080
98.898964 993.03796 944.29285 4278190080
872.27942 503.77872 573.24518 4278190080
217.16733 361.06927 868.32123 4278190080
437.20917 228.20592 960.09412 4278190080
383.84607 435.14963 207.47585 4278190080
769.84686 569.5744 584.20898 4278190080
452.18021 294.51578 933.74634 4278190080
423.39972 873.20355 325.61456 4278190080
23.239521 759.13745 398.97308 4278190080
833.89557 679.0329 794.92499 4278190080
505.99158 777.93188 763.96295 4278190080
426.28442 626.21124 243.7417 4278190080
999.5296 843.3786 604.81097 4278190080
843.85089 256.58777 833.01691 4278190080
779.94501 640.43384 244.1665 4278190080
987.42084 386.28067 813.74091 4278190080
547.62982 838.46088 84.256683 4278190080
457.37616 237.8606 957.46027 4278190080
782.99072 261.10013 692.59772 4278190080
157.96379 70.995682 347.63062 4278190080
952.88879 576.98724 101.56248 4278190080
692.85175 1003.2717 727.77374 4278190080
936.59344 978.80127 547.15234 4278190080
517.40442 798.65216 803.74011 4278190080
326.4213 554.59717 420.17392 4278190080
570.58777 518.01801 806.45459 4278190080
360.3287 41.647835 620.91547 4278190080
444.58539 499.02399 858.77612 4278190080
378.04562 258.01471 95.876221 4278190080
46.64333 415.97852 166.8719 4278190080
394.27393 344.86728 743.85913 4278190080
495.83643 13.719032 723.1308 4278190080
199.61015 950.3125 677.93213 4278190080
746.76251 443.71689 452.58429 4278190080
526.50256 770.13818 1007.1815 4278190080
946.67651 316.72598 501.19946 4278190080
729.1311 677.05469 542.84729 4278190080
326.04663 97.640076 17.871292 4278190080
160.82272 475.68573 275.88599 4278190080
256.69894 522.32904 691.8645 4278190080
423.57083 916.60297 12.731781 4278190080
143.42999 388.43939 26.450813 4278190080
866.56085 588.04956 976.76331 4278190080
520.49292 310.81204 396.48019 4278190080
973.07721 837.31464 142.61838 4278190080
956.25867 759.99115 459.34436 4278190080
433.45816 465.12228 112.39906 4278190080
976.30548 791.16888 210.03914 4278190080
994.17676 951.99164 685.72485 4278190080
246.06277 184.69057 184.05391 4278190080
937.92725 608.26141 76.656876 4278190080
950.65906 751.69141 465.09625 4278190080
977.10986 594.25226 29.145809 4278190080
929.87317 90.745178 339.95786 4278190080
302.35336 39.822418 153.27248 4278190080
444.97174 996.08112 913.26361 4278190080
904.3161 405.53928 354.38589 4278190080
1016.7151 357.84476 121.55481 4278190080
202.7543 328.02151 49.546444 4278190080
888.47919 574.08429 234.23701 4278190080
48.533062 488.01157 842.49841 4278190080
125.18994 414.67059 570.18982 4278190080
590.28619 367.78046 140.44209 4278190080
619.43201 273.65363 231.18727 4278190080
959.38989 576.00696 271.00967 4278190080
88.662338 1020.9787 243.09079 4278190080
1001.926 901.2948 648.63007 4278190080
332.31186 894.00995 1006.4749 4278190080
453.86667 72.764275 310.49634 4278190080
503.41312 961.24341 884.58063 4278190080
737.65015 1009.7765 348.59219 4278190080
556.14856 110.96644 763.26282 4278190080
102.33843 701.25262 107.04327 4278190080
242.78052 296.68466 380.6969 4278190080
473.96777 232.07452 956.70386 4278190080
744.97748 320.73688 953.68256 4278190080
988.06824 298.66284 830.97736 4278190080
612.69836 630.97467 700.98737 4278190080
595.17316 60.841381 773.75165 4278190080
905.66949 564.25452 710.99506 4278190080
766.25012 277.90466 696.77155 4278190080
90.842339 834.05322 807.73798 4278190080
854.10516 936.39166 484.99066 4278190080
961.14838 155.17218 781.67529 4278190080
317.84528 629.13995 1013.7498 4278190080
250.54915 350.11743 310.48669 4278190080
180.23172 314.1857 609.14954 4278190080
1011.2091 926.88403 216.12424 4278190080
688.19647 498.05719 276.96561 4278190080
437.94809 379.72672 841.22015 4278190080
124.94315 121.97685 95.124786 4278190080
821.71472 212.81918 929.17804 4278190080
605.4527 42.92432 841.5697 4278190080
66.443367 1004.0727 996.74188 4278190080
848.11865 297.918 601.88184 4278190080
837.86853 548.46716 951.99927 4278190080
124.35523 728.69891 242.18497 4278190080
733.50476 715.90796 145.06902 4278190080
949.62903 380.10443 643.12622 4278190080
202.59464 818.05249 1022.8529 4278190080
19.814758 942.99567 120.82977 4278190080
114.93954 740.71039 333.64896 4278190080
20.117559 322.16309 376.57327 4278190080
861.68726 388.60645 356.646 4278190080
834.42908 212.72514 654.56403 4278190080
412.31094 26.593662 179.03117 4278190080
340.31018 150.9489 907.73004 4278190080
582.49518 884.45367 599.63806 4278190080
727.56415 810.0827 979.74249 4278190080
346.69037 1012.6773 773.79498 4278190080
345.5433 8.4920673 692.79065 4278190080
466.37308 123.43161 409.50104 4278190080
800.02203 143.54916 731.66412 4278190080
152.59531 1005.2364 96.270584 4278190080
509.2413 815.66553 308.99573 4278190080
139.80531 203.97644 335.58939 4278190080
318.83649 544.28662 486.53827 4278190080
202.56654 102.78181 346.99194 4278190080
802.20459 830.34595 133.07463 4278190080
757.94708 153.03636 121.75194 4278190080
507.7421 498.57965 130.244 4278190080
176.53276 964.95276 253.67561 4278190080
586.03381 740.97479 397.22479 4278190080
293.69794 893.57007 378.46118 4278190080
389.96854 378.8114 170.12671 4278190080
698.96423 518.6167 374.10315 4278190080
10.553635 837.45319 918.38977 4278190080
497.09192 16.019751 1021.1716 4278190080
844.08386 818.22437 827.51758 4278190080
977.15851 552.17145 980.55396 4278190080
74.910439 35.913509 455.13361 4278190080
205.15443 212.44627 396.08633 4278190080
458.83005 798.4801 113.0611 4278190080
856.05481 68.178009 1006.6312 4278190080
210.51604 458.14655 361.44257 4278190080
380.64273 133.11078 880.05927 4278190080
754.74591 143.66441 693.51251 4278190080
649.13568 640.75635 709.53223 4278190080
646.30731 460.84021 503.75659 4278190080
449.82486 413.99872 31.928005 4278190080
406.37878 488.90915 67.841515 4278190080
861.51239 694.0636 280.28778 4278190080
233.59872 128.89363 54.767857 4278190080
346.65982 984.94849 122.94587 4278190080
329.29102 171.46451 581.09241 4278190080
690.73358 552.10724 714.20319 4278190080
546.79285 282.85315 857.86761 4278190080
216.30536 931.98883 474.62393 4278190080
925.83759 554.29608 935.46417 4278190080
405.59418 1004.121 325.46286 4278190080
437.52219 386.49976 814.37201 4278190080
505.36371 224.01215 484.43558 4278190080
785.65149 457.61087 613.32922 4278190080
840.41931 804.27069 574.27771 4278190080
963.36523 109.56171 745.74219 4278190080
520.45758 800.29529 273.84946 4278190080
210.6608 323.08817 556.70258 4278190080
44.528397 539.39355 464.69141 4278190080
519.15234 441.23111 1018.9875 4278190080
430.61649 846.82532 999.10846 4278190080
756.07935 260.34747 361.60825 4278190080
546.45135 765.71118 585.62036 4278190080
6.8869209 527.36267 19.231262 4278190080
620.21613 343.78198 823.50195 4278190080
170.49384 283.14722 933.06366 4278190080
916.23602 803.6048 709.35895 4278190080
166.08546 1014.2656 8.4471273 4278190080
722.78809 34.794006 547.84064 4278190080
163.47946 553.94635 989.07178 4278190080
158.467 984.56281 811.89709 4278190080
133.57547 716.64215 48.244549 4278190080
495.18372 239.09352 813.95575 4278190080
56.804115 245.98044 317.31839 4278190080
76.035378 866.19659 661.1004 4278190080
899.53735 12.690407 944.24756 4278190080
808.60101 928.92645 723.85242 4278190080
493.95996 71.011902 714.11798 4278190080
502.4071 793.79999 748.91199 4278190080
26.247742 957.27942 278.85837 4278190080
1015.3195 91.746422 239.4212 4278190080
803.21661 225.3219 956.06335 4278190080
851.46112 720.50562 171.15689 4278190080
641.41687 777.30975 417.13733 4278190080
958.73523 853.34509 259.33392 4278190080
595.83563 728.88245 272.02432 4278190080
516.08319 513.48346 176.95076 4278190080
215.93561 1007.4434 247.96266 4278190080
930.05359 485.85049 17.762623 4278190080
654.96564 512.09827 975.04205 4278190080
933.82397 503.41776 42.788471 4278190080
149.24519 282.63434 268.11038 4278190080
81.308563 110.09548 988.61597 4278190080
252.46545 751.51233 741.92572 4278190080
669.60278 686.24756 571.27087 4278190080
928.93671 258.08322 276.15329 4278190080
176.96103 774.16644 789.63672 4278190080
353.9118 990.10205 773.08014 4278190080
601.87445 896.15564 234.93066 4278190080
619.63708 527.12128 747.02893 4278190080
570.67914 436.94528 226.44667 4278190080
613.46759 586.19049 509.08102 4278190080
881.57794 667.49902 619.17651 4278190080
846.19397 919.96448 346.68884 4278190080
564.11969 565.56732 8.9364414 4278190080
111.39053 470.50403 267.01965 4278190080
387.54382 647.46503 17.186085 4278190080
153.18057 1001.3768 1007.2881 4278190080
926.26074 579.25128 879.44379 4278190080
137.19139 174.88835 382.56506 4278190080
884.22034 745.5675 819.51038 4278190080
86.666985 335.0351 381.70084 4278190080
