# .PCD v0.7 - Point Cloud Data file format
VERSION 0.7
FIELDS x y z rgb
SIZE 4 4 4 4
TYPE F F F U
COUNT 1 1 1 1
WIDTH 1175
HEIGHT 1
VIEWPOINT 0 0 0 1 0 0 0
POINTS 1175
DATA ascii
61.099491 494.94925 479.49869 4278190080
1020.1367 89.119446 812.34698 4278190080
797.68341 921.8147 416.40704 4278190080
87.724129 642.71411 990.37823 4278190080
78.628967 280.90112 467.85577 4278190080
582.00024 751.49261 658.79974 4278190080
593.43292 581.72241 461.22433 4278190080
562.16852 884.12769 546.21118 4278190080
875.80139 26.720304 976.28369 4278190080
601.20978 92.101807 968.74396 4278190080
828.43622 153.20129 439.69321 4278190080
283.93488 149.33795 528.81262 4278190080
72.281845 947.02136 426.62738 4278190080
488.6889 10.745471 45.341488 4278190080
455.06711 89.374435 326.24261 4278190080
922.92285 671.37469 53.735233 4278190080
557.72266 240.8076 635.45764 4278190080
1018.947 802.97614 495.58539 4278190080
541.15814 654.77753 522.30566 4278190080
493.44183 231.98729 614.40747 4278190080
438.18579 36.423485 767.60876 4278190080
877.87903 320.35837 916.94672 4278190080
382.69165 392.6402 839.96808 4278190080
809.31903 881.3291 850.71356 4278190080
854.66052 312.39621 940.08801 4278190080
156.90312 211.31906 587.46265 4278190080
210.63835 769.04169 828.27026 4278190080
846.09601 763.98865 607.2464 4278190080
317.6814 281.14679 238.02391 4278190080
839.98706 774.58862 470.0112 4278190080
430.39459 188.7744 506.43469 4278190080
174.00337 42.653397 826.79303 4278190080
66.950104 425.34506 195.43324 4278190080
906.91815 210.66408 52.762344 4278190080
733.63171 41.324581 365.15854 4278190080
649.71973 198.22771 576.4776 4278190080
213.18239 408.86606 321.51929 4278190080
17.452675 230.96208 61.507946 4278190080
624.6991 548.64349 342.65472 4278190080
862.72296 364.63058 93.243332 4278190080
308.73419 795.02515 282.01773 4278190080
815.16888 969.0285 324.67111 4278190080
617.96191 11.978622 750.01617 4278190080
813.39514 918.89679 960.68024 4278190080
866.15753 628.5285 1002.0048 4278190080
207.31606 254.24823 176.23253 4278190080
783.79364 467.43063 585.09857 4278190080
81.312958 484.8833 816.06067 4278190080
142.82091 85.582382 340.70416 4278190080
485.47562 948.30536 705.33472 4278190080
578.71893 233.03955 476.35989 4278190080
860.73669 24.208427 421.3884 4278190080
161.40781 642.17035 433.36703 4278190080
911.42401 431.56552 328.26382 4278190080
848.10425 273.72302 956.79236 4278190080
826.10907 481.03909 187.04059 4278190080
1002.3416 240.83275 654.47119 4278190080
563.44019 322.14572 115.35452 4278190080
355.50089 464.96661 200.93689 4278190080
696.20502 950.44226 125.24226 4278190080
377.53976 505.16119 358.2818 4278190080
853.89966 341.89789 382.49023 4278190080
251.28804 503.30569 0.66058826 4278190080
684.65509 390.72971 432.2261 4278190080
1012.9189 214.83394 705.94916 4278190080
945.71124 16.943005 162.98824 4278190080
108.75182 1019.2846 403.82098 4278190080
763.22302 558.72479 725.96667 4278190080
878.57758 914.22565 166.9333 4278190080
55.514446 586.43073 93.375549 4278190080
180.7567 963.97046 598.53674 4278190080
539.03851 793.87012 940.43463 4278190080
921.52875 21.158161 419.74036 4278190080
922.18933 705.81323 810.47003 4278190080
330.41547 694.73212 1.3039737 4278190080
12.364594 616.44336 18.246979 4278190080
175.35283 725.19519 13.531587 4278190080
579.17383 464.41821 572.25641 4278190080
281.1405 318.99576 462.48206 4278190080
448.07382 374.51022 24.912777 4278190080
541.44934 555.26691 988.88324 4278190080
115.98612 70.305443 758.75336 4278190080
32.420769 991.83423 779.9115 4278190080
452.1611 890.02356 461.72476 4278190080
238.63115 196.439 132.45686 4278190080
239.93513 208.80359 748.90021 4278190080
258.1821 384.15643 450.0954 4278190080
271.71368 963.33026 914.51361 4278190080
843.97009 220.47075 209.5094 4278190080
282.45215 668.54456 584.01959 4278190080
307.36493 185.99393 115.28654 4278190080
272.24817 301.98004 185.59198 4278190080
7.0015492 334.40082 153.42618 4278190080
786.91309 786.56195 19.449726 4278190080
224.63783 1.1930995 215.88873 4278190080
357.0947 241.12823 424.69232 4278190080
81.994919 499.31033 808.84875 4278190080
532.09033 771.02405 748.17896 4278190080
422.60394 590.99414 968.64972 4278190080
632.11334 873.44629 613.19427 4278190080
192.13295 156.81122 799.18823 4278190080
307.41949 429.05939 77.168259 4278190080
493.01147 436.06094 411.56909 4278190080
646.43768 198.97403 174.13103 4278190080
665.88739 423.61185 175.32413 4278190080
881.77612 780.70654 416.45236 4278190080
282.46841 862.70148 915.7627 4278190080
67.317169 370.79178 662.78674 4278190080
815.49615 793.39575 229.78085 4278190080
760.14587 401.50906 79.227142 4278190080
349.34015 593.64203 236.03836 4278190080
124.52834 901.06152 665.09778 4278190080
201.69661 370.073 77.158699 4278190080
613.26569 1016.5106 276.13272 4278190080
787.39673 658.39801 699.74457 4278190080
962.72083 516.17413 456.45111 4278190080
355.17322 798.64258 295.15259 4278190080
246.93591 865.95972 665.9444 4278190080
909.72266 657.45587 435.34012 4278190080
115.50351 393.60175 836.84918 4278190080
194.73065 742.94189 406.49121 4278190080
430.76901 867.47021 283.55273 4278190080
71.866753 45.166817 653.62573 4278190080
149.02545 658.4325 646.13641 4278190080
425.15817 421.82922 280.53442 4278190080
100.90276 360.55008 796.70856 4278190080
557.35388 715.72333 571.35114 4278190080
852.50647 962.65924 413.31085 4278190080
494.45084 848.3819 46.766739 4278190080
929.79095 963.88538 440.36847 4278190080
742.64014 134.61603 159.31035 4278190080
125.13138 565.38501 2.7805576 4278190080
408.68411 637.25177 47.947376 4278190080
38.309868 786.27722 706.37988 4278190080
684.44629 187.43542 104.20912 4278190080
964.98071 288.33817 464.75922 4278190080
737.68927 845.69208 156.48251 4278190080
285.04037 674.19855 95.141739 4278190080
698.35126 144.64937 943.52362 4278190080
745.11798 50.440327 883.409 4278190080
161.48647 793.08051 1018.025 4278190080
320.79681 918.21185 559.41003 4278190080
323.57736 302.896 172.66185 4278190080
371.52475 341.20584 958.93909 4278190080
53.904633 1.6521182 122.37453 4278190080
158.11375 966.63281 410.71271 4278190080
622.87299 680.32208 232.40475 4278190080
779.35547 965.36243 906.60327 4278190080
874.49719 639.71368 27.252645 4278190080
794.02081 360.8317 77.69297 4278190080
653.42981 522.31818 870.77344 4278190080
647.45483 843.11499 764.98529 4278190080
182.86491 142.69235 43.881294 4278190080
355.52676 514.2171 385.08716 4278190080
290.46588 568.1217 386.73926 4278190080
412.84039 726.23547 329.37207 4278190080
823.5531 325.10846 1009.6942 4278190080
31.957865 80.463928 951.05658 4278190080
938.56116 954.96112 566.77032 4278190080
965.81378 724.98199 927.60199 4278190080
19.506762 354.4118 425.92017 4278190080
890.28021 1001.8666 245.03516 4278190080
631.2655 160.73158 387.72751 4278190080
675.14679 516.25836 901.94458 4278190080
36.233963 806.72424 446.06635 4278190080
422.97324 195.56464 148.30182 4278190080
752.34528 1019.1177 473.41028 4278190080
738.03943 27.075605 553.87421 4278190080
665.09601 965.63678 484.83536 4278190080
207.86633 907.45056 185.81732 4278190080
111.46833 926.95728 540.22913 4278190080
537.38849 793.23749 518.09576 4278190080
782.42365 400.50305 678.82739 4278190080
146.15115 51.649853 171.08574 4278190080
24.095758 87.883812 977.81 4278190080
470.16211 510.85706 149.3746 4278190080
618.46393 239.20235 144.49234 4278190080
67.874191 977.24176 171.56795 4278190080
621.74841 618.33783 113.2047 4278190080
82.58374 826.20416 1020.6552 4278190080
268.40106 937.67249 923.61255 4278190080
808.63019 451.06097 692.85004 4278190080
302.72598 209.48463 69.353096 4278190080
981.55334 355.6358 121.00294 4278190080
128.6391 379.73157 208.88676 4278190080
82.449066 849.89368 719.74377 4278190080
231.82367 444.35757 958.94617 4278190080
376.31601 512.23175 912.18793 4278190080
547.88397 109.98016 506.52576 4278190080
661.08868 192.56389 308.72989 4278190080
657.7439 460.96497 222.40239 4278190080
557.35645 245.59515 673.46338 4278190080
226.2065 548.32117 882.948 4278190080
295.5596 505.87451 214.58382 4278190080
416.56253 634.51361 594.31537 4278190080
625.44928 716.96265 420.20901 4278190080
321.19312 948.78632 864.56659 4278190080
256.13925 301.10233 352.79834 4278190080
144.32716 848.98633 462.7785 4278190080
650.85291 486.07495 655.34241 4278190080
959.58282 119.81886 92.30735 4278190080
157.9852 677.17529 337.9025 4278190080
831.44861 903.38177 886.22363 4278190080
690.39661 174.94141 368.09814 4278190080
904.98041 591.50397 1002.6118 4278190080
475.29578 192.95325 695.5744 4278190080
895.50476 514.14636 620.36072 4278190080
736.07135 770.28558 921.46307 4278190080
64.86972 914.61273 746.44934 4278190080
527.64819 541.46564 208.52432 4278190080
158.99062 477.04849 328.3432 4278190080
251.29796 635.03369 1005.5185 4278190080
589.20044 442.48227 884.90027 4278190080
451.4241 108.87886 35.841694 4278190080
819.52228 1013.8593 627.34564 4278190080
798.13397 465.15503 820.29889 4278190080
469.70837 336.65982 310.44522 4278190080
66.069107 48.731194 56.730793 4278190080
987.53217 113.60091 971.34357 4278190080
709.98157 641.24915 488.8092 4278190080
918.50586 800.23975 965.85767 4278190080
222.84906 27.537712 576.89136 4278190080
204.36754 616.73816 1019.3737 4278190080
65.267838 44.162292 104.2525 4278190080
101.10953 863.68457 94.111763 4278190080
728.45514 637.81854 559.26678 4278190080
524.75403 83.526917 895.92664 4278190080
835.19922 149.59602 944.65784 4278190080
891.93005 113.1282 34.258732 4278190080
839.27356 823.10974 675.50787 4278190080
304.08279 717.6156 451.74762 4278190080
245.94049 940.46466 479.28531 4278190080
822.83185 120.83221 72.023499 4278190080
818.20551 186.10005 116.18579 4278190080
922.45801 287.20956 979.87036 4278190080
1016.5698 1015.6647 593.68884 4278190080
551.83655 516.41876 677.21576 4278190080
423.76318 327.61801 826.81183 4278190080
344.42102 195.54807 939.94 4278190080
378.67975 10.821643 739.04974 4278190080
30.187605 314.90445 432.66534 4278190080
481.93521 560.84491 349.13 4278190080
961.22052 359.67679 469.96222 4278190080
9.24403 153.88231 656.06226 4278190080
125.42982 52.340309 943.27185 4278190080
81.300156 44.91008 934.93658 4278190080
674.98901 596.74664 427.35535 4278190080
328.2048 1020.5098 754.97339 4278190080
131.01659 340.93085 950.52142 4278190080
46.956593 719.6106 961.34308 4278190080
786.00635 749.79822 252.24751 4278190080
194.67169 207.73341 813.09247 4278190080
543.8017 144.95395 148.76924 4278190080
1013.7639 154.19798 302.65155 4278190080
645.82623 279.62781 354.99185 4278190080
565.09808 360.92795 399.90195 4278190080
476.03464 11.916965 996.64856 4278190080
903.39001 340.12177 993.15845 4278190080
634.36334 471.13834 310.08929 4278190080
560.88483 518.09497 5.6998854 4278190080
498.22787 280.10129 755.49811 4278190080
750.4754 474.77298 963.23151 4278190080
539.56787 1018.5747 84.185455 4278190080
688.3371 1008.3386 238.38344 4278190080
990.98865 630.16479 518.01123 4278190080
321.9805 171.26288 878.93921 4278190080
721.88245 647.29749 890.85614 4278190080
694.53101 526.6875 206.97791 4278190080
663.68945 137.05089 678.11627 4278190080
973.77875 697.93567 172.2112 4278190080
979.47864 172.16357 452.31247 4278190080
710.97668 922.63898 927.08545 4278190080
650.20819 438.20682 921.6601 4278190080
734.39368 102.54391 905.99872 4278190080
972.7771 69.532547 512.16357 4278190080
466.78833 391.51303 683.42645 4278190080
321.72751 89.39547 306.72394 4278190080
188.58366 783.92651 833.41144 4278190080
395.56155 423.61594 970.46234 4278190080
49.677814 373.39468 644.39801 4278190080
221.88901 328.87329 816.56158 4278190080
674.20148 15.850006 715.20056 4278190080
577.28693 666.05823 129.40739 4278190080
474.94702 376.4519 231.95131 4278190080
356.94577 325.229 301.48386 4278190080
869.10931 792.01733 692.99689 4278190080
528.53577 89.744827 782.3924 4278190080
835.2597 278.32849 542.31885 4278190080
644.67114 673.89008 965.93481 4278190080
591.13348 723.56787 315.32947 4278190080
211.53149 945.45685 644.20276 4278190080
4.0930872 595.65833 660.0528 4278190080
719.29364 148.94527 302.11099 4278190080
848.70105 623.89227 678.56287 4278190080
56.652351 980.83807 1003.7919 4278190080
358.1362 825.94739 771.8092 4278190080
27.133099 330.48309 861.55402 4278190080
809.52545 141.74278 115.88251 4278190080
327.84433 786.41394 789.77258 4278190080
269.77911 353.54739 489.34042 4278190080
585.10858 565.07886 410.7973 4278190080
205.31136 569.17194 1006.4556 4278190080
865.36414 264.46561 131.40092 4278190080
143.47513 89.166672 755.29321 4278190080
822.03802 145.81903 712.13129 4278190080
801.8299 503.95523 514.07867 4278190080
549.6391 531.08832 844.56177 4278190080
387.19312 316.6138 986.30457 4278190080
503.07562 644.45813 748.71844 4278190080
268.84818 914.23724 78.265839 4278190080
758.1886 475.34583 643.34473 4278190080
144.98592 680.65723 188.51668 4278190080
127.44157 522.02136 452.9823 4278190080
258.8425 665.49646 542.14899 4278190080
1014.1357 463.53448 687.96802 4278190080
702.26703 241.3644 167.92322 4278190080
192.34564 791.00348 699.01154 4278190080
12.907398 154.19659 1015.6254 4278190080
999.21191 657.27222 636.0835 4278190080
723.93036 926.12042 526.32074 4278190080
802.19623 660.30902 1001.6666 4278190080
421.54092 805.29492 658.32373 4278190080
610.05762 932.73651 156.34509 4278190080
39.039913 167.57901 821.84155 4278190080
581.1889 157.71474 261.37607 4278190080
245.15688 859.98175 502.74045 4278190080
413.08011 28.327387 269.74393 4278190080
88.091644 41.234787 423.94052 4278190080
79.716995 16.446718 57.21273 4278190080
715.80048 740.37708 983.33313 4278190080
218.12119 518.5733 619.64215 4278190080
195.78773 940.11426 400.93707 4278190080
854.11151 526.17188 309.67358 4278190080
1010.4566 565.21179 477.25259 4278190080
808.29816 122.40067 634.96735 4278190080
45.674213 367.55756 470.94907 4278190080
548.41467 780.63763 499.27646 4278190080
818.15857 868.72931 540.51123 4278190080
218.09911 948.44629 556.95795 4278190080
275.31183 640.24677 273.33505 4278190080
234.64497 858.36792 791.90839 4278190080
854.28711 30.155664 708.02264 4278190080
231.22418 884.26715 210.19453 4278190080
540.89777 870.72375 775.40631 4278190080
1018.1503 655.02191 897.80701 4278190080
629.11768 700.69611 241.36456 4278190080
76.066742 225.11076 1022.0022 4278190080
575.3432 19.269352 866.73151 4278190080
91.854431 237.36847 791.1778 4278190080
648.81238 512.6803 407.42456 4278190080
922.14746 747.32526 241.79248 4278190080
690.05585 577.61237 271.94815 4278190080
374.07852 808.83655 132.2153 4278190080
584.27307 325.73431 1002.939 4278190080
335.67938 319.88464 633.96094 4278190080
209.48639 949.00232 310.65701 4278190080
450.85095 1.0690618 535.76776 4278190080
448.85315 576.41223 555.03711 4278190080
291.58466 668.26666 792.40558 4278190080
58.762455 293.07907 281.08588 4278190080
466.18701 191.22653 4.4111538 4278190080
707.97949 881.28241 582.0235 4278190080
979.92761 231.3609 366.86008 4278190080
88.142937 815.63391 692.59436 4278190080
67.08197 127.31332 1012.479 4278190080
701.04291 336.79971 937.48132 4278190080
1011.6999 787.65063 938.55042 4278190080
523.46765 212.50381 490.96268 4278190080
54.504772 504.08847 135.22935 4278190080
846.91034 562.85095 428.30844 4278190080
103.99624 5.0379324 619.53497 4278190080
108.40739 713.0174 476.81738 4278190080
690.43091 668.94507 708.17828 4278190080
33.291 757.08801 499.81219 4278190080
725.88538 824.16998 627.12555 4278190080
714.36444 501.21283 963.92523 4278190080
627.84576 488.91272 727.57587 4278190080
542.39618 1012.3804 940.07971 4278190080
9.3588562 42.885159 420.16818 4278190080
144.58821 889.79553 983.0191 4278190080
572.89667 993.79175 988.05701 4278190080
168.43164 78.199142 677.07446 4278190080
645.24902 768.63007 322.0195 4278190080
329.42728 801.92108 55.107513 4278190080
829.2395 503.80646 879.27747 4278190080
432.36502 194.17087 356.49033 4278190080
372.29025 822.01666 845.40308 4278190080
75.866127 340.41281 833.78345 4278190080
1015.9458 349.77167 876.66858 4278190080
412.11401 494.35989 742.46411 4278190080
371.13309 43.256557 712.25586 4278190080
335.19012 211.6882 790.45502 4278190080
1012.2646 856.93719 535.08508 4278190080
310.28409 162.36449 313.00616 4278190080
365.3916 991.604 816.81262 4278190080
220.6691 399.96899 1010.9835 4278190080
577.15942 772.25922 809.00012 4278190080
398.56247 848.12537 125.41292 4278190080
208.34592 840.07117 475.1846 4278190080
61.014515 228.18518 969.54449 4278190080
803.47864 599.3183 1012.801 4278190080
491.7345 934.50842 200.48924 4278190080
258.18951 922.77301 33.426464 4278190080
793.2746 209.0571 195.79095 4278190080
82.280746 574.44873 163.39494 4278190080
899.09332 795.1178 563.36389 4278190080
886.07684 348.27722 311.62314 4278190080
671.0769 746.83972 135.74849 4278190080
796.48981 955.18561 975.8197 4278190080
247.67444 1016.2001 180.00487 4278190080
193.21892 795.67877 779.32312 4278190080
182.01997 263.41327 689.83154 4278190080
382.50922 521.60278 588.60455 4278190080
415.9357 290.87735 797.66168 4278190080
611.72662 373.15811 348.11038 4278190080
775.12158 248.25145 119.2282 4278190080
314.4855 110.32827 467.50543 4278190080
626.10864 781.40521 190.34512 4278190080
761.85712 553.89502 121.53074 4278190080
713.67682 801.56946 113.73087 4278190080
893.6817 994.78839 909.40961 4278190080
649.00482 152.80835 148.82288 4278190080
314.8364 535.31757 670.42566 4278190080
903.44098 951.25323 961.30298 4278190080
677.1026 538.97992 310.46112 4278190080
1.213017 290.1015 558.71259 4278190080
120.44122 604.58698 669.04083 4278190080
587.94666 206.69565 426.44601 4278190080
778.29175 968.5528 980.34106 4278190080
899.82251 658.22961 757.91052 4278190080
1013.5534 527.91125 728.69885 4278190080
898.96301 152.91611 881.50726 4278190080
23.785873 467.7525 392.8248 4278190080
694.21149 347.19345 320.07806 4278190080
631.51453 0.2960763 859.05798 4278190080
941.97565 1.5090933 125.15948 4278190080
476.6882 121.95031 729.74646 4278190080
121.72903 709.89697 936.44214 4278190080
548.17505 464.18872 880.99493 4278190080
504.51608 340.01123 515.22449 4278190080
238.42659 329.56461 19.13579 4278190080
967.12549 204.52762 172.0519 4278190080
824.63269 228.31349 639.80438 4278190080
193.45752 922.52502 986.99786 4278190080
513.53558 530.03955 987.29388 4278190080
348.59357 448.01517 988.80298 4278190080
473.75305 924.70337 86.753319 4278190080
179.49954 22.432381 796.65027 4278190080
91.941666 570.60742 236.839 4278190080
972.93658 51.123528 576.85022 4278190080
464.16107 289.55011 906.41486 4278190080
483.29688 232.6756 86.94249 4278190080
655.34875 33.308304 315.25598 4278190080
271.15317 226.76582 213.78098 4278190080
234.15099 740.30139 743.8205 4278190080
197.4449 64.894997 167.83566 4278190080
162.24791 538.64807 68.539001 4278190080
249.00124 718.14758 90.971382 4278190080
21.651508 810.08929 661.5788 4278190080
258.49051 759.02582 712.70233 4278190080
835.34076 199.18692 1002.2524 4278190080
717.75562 682.48383 210.92805 4278190080
804.69812 313.83258 244.23636 4278190080
95.954102 584.98572 471.0022 4278190080
309.73508 819.13672 187.3036 4278190080
29.555586 1016.5816 252.19859 4278190080
197.39124 154.82953 790.84668 4278190080
265.93024 403.83075 484.99426 4278190080
356.90164 425.48227 271.08353 4278190080
1018.4805 683.97278 6.1093774 4278190080
707.1828 495.31354 205.29631 4278190080
685.43524 189.06918 887.78009 4278190080
896.36334 993.76733 177.61267 4278190080
116.59968 65.721413 762.59839 4278190080
587.60187 375.45648 557.73511 4278190080
774.90546 405.01208 550.31671 4278190080
3.1040535 602.40332 705.14624 4278190080
793.95068 868.33356 84.977028 4278190080
254.94498 201.2352 510.45929 4278190080
526.0285 195.71565 170.43208 4278190080
532.13788 902.89844 665.74567 4278190080
737.4342 564.33368 854.81482 4278190080
601.21429 436.69702 824.58215 4278190080
778.82697 553.29669 890.30353 4278190080
517.42535 116.89856 241.76004 4278190080
51.160473 891.80402 646.77209 4278190080
601.47723 894.90808 225.17545 4278190080
282.62347 664.85876 69.50901 4278190080
367.60049 919.80377 270.7442 4278190080
878.05981 421.83224 466.45987 4278190080
24.491894 953.97015 345.35831 4278190080
690.23755 667.40436 909.69202 4278190080
521.05237 244.61862 322.38904 4278190080
321.63452 1023.4456 875.68573 4278190080
187.93806 516.87097 992.58429 4278190080
429.69809 568.03143 860.38831 4278190080
52.470226 145.50864 731.29639 4278190080
277.64566 428.13211 372.15515 4278190080
347.15466 795.7326 267.95889 4278190080
617.89886 649.79242 689.79114 4278190080
60.358749 674.2843 619.76129 4278190080
405.71704 340.52185 263.16562 4278190080
291.40906 861.57422 507.78427 4278190080
613.7981 159.20871 507.22986 4278190080
465.48383 347.14679 0.1008153 4278190080
434.06812 776.84485 568.13226 4278190080
270.45642 829.31512 713.64087 4278190080
1001.7528 82.96077 117.77299 4278190080
349.90793 430.11545 913.50562 4278190080
617.86682 24.014332 539.29803 4278190080
283.65799 84.373077 189.58234 4278190080
903.41931 490.09015 530.10419 4278190080
142.58493 781.49921 367.67838 4278190080
650.3692 371.2973 526.88708 4278190080
133.59904 836.78113 874.03387 4278190080
133.69986 246.84926 626.87872 4278190080
701.83209 517.30566 432.19385 4278190080
391.47299 495.05847 515.1546 4278190080
509.246 844.96643 945.27008 4278190080
398.75159 438.83325 969.28442 4278190080
938.04962 722.49121 29.65748 4278190080
103.63195 601.91052 519.74762 4278190080
633.73615 744.49548 277.24683 4278190080
1001.4145 370.86465 648.54413 4278190080
504.30161 504.46368 461.32526 4278190080
354.33548 638.16357 708.17456 4278190080
981.21423 315.99567 201.48022 4278190080
389.40808 707.46863 696.5387 4278190080
904.56268 192.71465 517.50513 4278190080
825.83276 591.46625 956.33838 4278190080
771.11719 505.51587 654.82959 4278190080
800.77466 609.14783 232.74013 4278190080
296.52228 218.88393 977.2356 4278190080
573.7691 196.29843 324.10022 4278190080
198.31322 700.60004 828.5639 4278190080
659.63849 30.935505 442.72745 4278190080
343.81302 1012.1497 758.72308 4278190080
545.29321 377.5578 442.19174 4278190080
217.83194 258.12048 634.90637 4278190080
735.33704 59.953262 202.37263 4278190080
667.67542 831.07043 707.88849 4278190080
298.505 607.84509 293.03629 4278190080
531.24512 904.36731 511.92023 4278190080
484.48071 454.13641 708.21863 4278190080
808.58093 652.44965 384.8187 4278190080
613.14484 288.08813 415.75418 4278190080
31.872292 631.90112 403.90393 4278190080
790.5954 153.19438 781.46173 4278190080
208.78716 371.02634 15.58222 4278190080
843.69354 82.363373 75.535484 4278190080
22.066183 750.03876 906.6059 4278190080
729.95465 24.543779 490.45099 4278190080
1022.991 555.78888 370.81833 4278190080
510.91119 16.269606 824.95471 4278190080
195.12985 824.85052 453.40439 4278190080
579.94855 413.99536 741.49249 4278190080
995.70276 445.86765 349.39365 4278190080
375.60666 212.46306 502.58804 4278190080
133.06837 421.25021 873.61438 4278190080
148.65059 240.94377 955.97772 4278190080
224.18608 263.00995 682.01654 4278190080
106.79198 992.9646 706.5603 4278190080
597.24298 991.95557 238.3492 4278190080
968.06128 478.86679 254.6188 4278190080
769.01605 673.99664 55.46933 4278190080
198.42041 229.94518 469.46469 4278190080
939.9129 201.6479 915.33234 4278190080
265.30655 577.25458 103.79542 4278190080
767.89459 710.32294 525.04565 4278190080
617.50891 858.97351 765.98938 4278190080
549.48663 59.159607 4.9993429 4278190080
207.50317 165.9516 997.96399 4278190080
914.06348 763.19458 965.91956 4278190080
128.41266 707.25586 420.78635 4278190080
383.03146 452.27188 70.782974 4278190080
438.50079 650.69226 300.72815 4278190080
907.96552 566.60522 502.37607 4278190080
799.29785 831.91174 55.63063 4278190080
903.09326 575.80634 765.95355 4278190080
404.13889 169.31526 600.92712 4278190080
146.1283 718.80194 660.08673 4278190080
151.12764 926.30511 826.03833 4278190080
125.0916 816.36853 565.23285 4278190080
67.011147 944.78119 248.48872 4278190080
487.79749 303.81268 700.76062 4278190080
558.58044 742.31348 327.45291 4278190080
859.30865 626.27893 894.05811 4278190080
337.68469 401.57678 701.96985 4278190080
393.31531 280.67004 253.77615 4278190080
135.26889 684.80896 423.0914 4278190080
736.19598 830.93726 117.89333 4278190080
372.28271 982.06488 20.198423 4278190080
174.32101 83.156464 836.56696 4278190080
739.55389 150.16762 757.34821 4278190080
988.0426 637.96509 37.160862 4278190080
664.80322 172.54556 779.4743 4278190080
992.2561 7.8541946 381.75327 4278190080
862.31421 345.53888 783.33008 4278190080
540.28406 738.85419 40.000099 4278190080
794.06018 874.12311 724.80902 4278190080
193.15161 586.31909 531.74628 4278190080
311.04495 958.60181 489.81116 4278190080
331.24335 108.92281 572.96759 4278190080
143.81035 848.47668 723.13519 4278190080
901.15851 812.51929 337.10031 4278190080
938.3194 453.32248 509.64587 4278190080
693.7937 421.57858 517.50006 4278190080
51.546982 259.89279 863.03894 4278190080
834.87701 800.17682 577.89319 4278190080
874.87714 570.237 428.01627 4278190080
575.68616 763.38861 1014.3354 4278190080
83.432449 50.433556 948.93719 4278190080
573.24359 381.67691 33.85997 4278190080
122.2112 525.48724 882.33667 4278190080
845.34644 402.64578 670.85596 4278190080
158.44673 316.96518 100.17841 4278190080
668.09259 1010.7589 521.75702 4278190080
161.5927 38.305893 781.64978 4278190080
0.63166666 873.18292 557.8266 4278190080
578.52484 724.06006 104.06362 4278190080
1006.5411 275.74622 867.45221 4278190080
996.87653 359.17868 917.8858 4278190080
921.81366 932.42224 275.56271 4278190080
955.67365 30.633461 801.04999 4278190080
814.01025 875.97986 179.69577 4278190080
460.86621 10.4266 496.66098 4278190080
561.04462 678.51923 483.41989 4278190080
58.801624 840.11194 521.72577 4278190080
840.45142 840.74359 370.90869 4278190080
374.27802 395.26843 70.968742 4278190080
478.34164 377.80954 346.71497 4278190080
321.79388 350.68604 705.89362 4278190080
215.67969 248.49971 614.31592 4278190080
491.2424 180.17334 644.94934 4278190080
268.29236 994.18365 496.92923 4278190080
447.98816 431.04984 507.35583 4278190080
944.64911 992.09448 161.87505 4278190080
404.069 26.89608 1001.9869 4278190080
925.79474 867.34747 818.73053 4278190080
272.70343 217.62552 189.99898 4278190080
343.67218 695.96716 567.80853 4278190080
690.38715 1017.761 918.49457 4278190080
372.28079 209.44073 142.99428 4278190080
986.59668 700.68311 323.16763 4278190080
607.54608 968.97552 293.35126 4278190080
80.475296 392.96365 724.40106 4278190080
587.83112 313.61276 692.49554 4278190080
749.70618 717.68176 719.3916 4278190080
727.69318 619.4765 562.73914 4278190080
522.42371 892.17993 780.36462 4278190080
712.42267 211.85213 452.33182 4278190080
256.2312 902.23926 446.09286 4278190080
150.72577 250.52008 655.53357 4278190080
293.72006 213.11678 332.21674 4278190080
616.8877 820.66284 277.19223 4278190080
910.23895 901.13812 670.15588 4278190080
610.64001 464.96927 983.76862 4278190080
279.13556 190.67546 677.45038 4278190080
998.52716 918.36859 272.92688 4278190080
537.2663 416.79233 141.10683 4278190080
293.63092 105.21499 352.95895 4278190080
745.96271 361.4462 231.19824 4278190080
168.05559 512.17194 481.71832 4278190080
823.58917 805.89203 694.83508 4278190080
131.80592 398.77969 491.49792 4278190080
408.99814 285.01862 368.63605 4278190080
55.154034 895.65863 833.60529 4278190080
14.922674 150.79416 0.28077316 4278190080
692.37305 125.32132 918.64941 4278190080
965.29993 662.58759 311.44171 4278190080
82.406769 956.21851 416.65671 4278190080
435.36572 678.18127 778.10291 4278190080
666.56396 846.23688 266.27484 4278190080
124.28228 645.82605 48.166847 4278190080
819.11737 777.63196 446.94653 4278190080
286.6153 162.63011 731.96515 4278190080
655.25134 217.78415 603.62372 4278190080
464.85666 232.70683 754.41791 4278190080
465.13742 925.0799 879.7392 4278190080
359.7868 866.37982 518.32684 4278190080
671.22852 948.78662 450.54535 4278190080
63.885204 360.15234 104.72662 4278190080
841.9881 2.7162976 950.9635 4278190080
84.262932 126.99858 572.78949 4278190080
132.42978 946.11597 326.42148 4278190080
579.37628 208.73123 489.05161 4278190080
287.34143 863.98254 706.83575 4278190080
890.96515 304.8392 939.5426 4278190080
621.38306 769.97662 840.62244 4278190080
477.12228 105.76344 683.00232 4278190080
995.4491 776.99194 607.78888 4278190080
421.99445 840.87714 967.94122 4278190080
526.72107 658.86523 970.65753 4278190080
453.68454 743.12817 73.656097 4278190080
2.4740648 875.55792 1019.772 4278190080
328.89554 430.93423 204.50328 4278190080
817.94714 718.2757 44.485844 4278190080
500.7829 585.24084 349.32504 4278190080
416.32547 182.6239 95.301682 4278190080
232.94795 659.74615 201.06511 4278190080
915.95026 631.19531 978.05707 4278190080
499.73914 29.189739 794.9342 4278190080
443.68036 555.91083 429.79944 4278190080
390.33789 1009.5953 148.92761 4278190080
463.99399 1012.0694 0.48554802 4278190080
459.76602 316.96497 431.4198 4278190080
664.26929 110.91212 125.69547 4278190080
708.75513 611.69501 710.93634 4278190080
34.080208 4.0205135 893.56024 4278190080
129.38188 236.96846 529.3064 4278190080
330.44699 128.9187 136.50168 4278190080
284.50406 628.65784 165.69142 4278190080
55.438259 48.338203 721.60223 4278190080
485.2377 438.67609 707.19757 4278190080
634.16528 902.67004 695.26703 4278190080
634.65088 338.4361 1012.232 4278190080
42.070644 1002.7054 99.144119 4278190080
167.76611 687.46057 710.83917 4278190080
878.70245 721.54077 714.85968 4278190080
748.26263 850.92267 951.82812 4278190080
253.56903 157.36964 56.746834 4278190080
390.07071 441.87372 685.40466 4278190080
555.76215 497.31195 733.74286 4278190080
253.36438 982.54968 148.41896 4278190080
960.56195 592.71497 27.089031 4278190080
631.82898 203.36581 365.52512 4278190080
620.06097 245.43646 344.23053 4278190080
719.20508 413.20258 7.691093 4278190080
406.04425 267.905 729.23187 4278190080
96.903908 1016.1677 556.15454 4278190080
24.732035 245.73668 713.52417 4278190080
81.478867 635.80737 131.39787 4278190080
766.88354 167.56953 628.70984 4278190080
476.62643 420.9339 587.25952 4278190080
625.04541 357.49588 155.97446 4278190080
652.1344 989.32489 359.34027 4278190080
1017.6595 585.38586 604.77673 4278190080
337.89008 280.59094 1017.9793 4278190080
345.58118 686.63519 261.88431 4278190080
50.813038 783.53912 254.05196 4278190080
606.96753 808.27112 499.78864 4278190080
296.4917 889.75 111.59602 4278190080
427.88959 632.63354 279.16556 4278190080
32.599407 85.259987 700.09949 4278190080
619.85889 710.30536 33.595345 4278190080
775.83337 338.43982 1022.9202 4278190080
111.17363 332.09937 584.30609 4278190080
715.95038 669.98944 864.89703 4278190080
709.92969 1015.5706 527.53223 4278190080
971.81396 42.383667 287.07132 4278190080
201.86595 649.3512 71.342484 4278190080
701.6546 945.84296 961.09247 4278190080
813.25061 349.73251 569.72607 4278190080
68.416153 382.33191 654.98602 4278190080
768.51562 1002.1908 341.29141 4278190080
802.11096 754.02417 679.7312 4278190080
801.03119 865.19781 1011.8306 4278190080
361.33725 557.14819 657.82001 4278190080
202.23427 243.07785 649.39069 4278190080
729.76648 190.89185 691.77435 4278190080
1016.8378 392.75778 317.12555 4278190080
64.180305 70.412369 238.96848 4278190080
1.2727981 883.66296 588.70099 4278190080
570.99884 952.0791 971.0329 4278190080
201.98488 696.59473 949.22369 4278190080
543.27631 474.70572 679.24792 4278190080
199.00752 251.73689 520.44568 4278190080
186.8381 613.07416 53.593876 4278190080
844.65814 815.30841 296.67172 4278190080
470.0488 521.07489 487.56357 4278190080
137.82312 513.91272 880.32135 4278190080
454.94867 578.09302 950.73376 4278190080
693.91711 579.36584 810.39673 4278190080
258.61813 126.36467 738.47583 4278190080
205.65103 328.34955 411.07056 4278190080
130.87476 871.62585 885.77625 4278190080
810.12262 46.633369 113.51315 4278190080
306.56836 233.47147 726.58728 4278190080
360.16223 54.129597 517.89569 4278190080
656.83398 524.17841 14.970577 4278190080
120.39754 662.00153 528.8833 4278190080
1000.7189 92.950157 82.976326 4278190080
927.45264 786.86731 662.34216 4278190080
713.84937 21.485424 788.70685 4278190080
428.32516 227.13646 93.056374 4278190080
839.39569 358.0112 964.68225 4278190080
701.172 144.13385 1011.3156 4278190080
814.68512 450.70221 220.78706 4278190080
517.2724 810.86444 274.91666 4278190080
11.168079 443.69839 799.09503 4278190080
26.138657 564.09595 437.09653 4278190080
555.02197 540.81482 530.04669 4278190080
637.99829 444.26749 292.914 4278190080
276.34042 134.11682 314.39941 4278190080
41.047249 562.44202 541.53589 4278190080
134.10362 377.83771 899.54706 4278190080
74.785851 55.009678 19.680937 4278190080
62.101448 869.69482 470.38315 4278190080
282.88852 362.96719 257.24756 4278190080
557.80518 374.13528 700.94592 4278190080
332.90021 400.27393 241.04187 4278190080
769.99677 955.2959 781.85669 4278190080
276.04346 569.29419 202.12418 4278190080
568.95746 845.63458 336.241 4278190080
883.35687 886.68182 898.68298 4278190080
400.89276 1020.7855 252.52069 4278190080
276.43985 71.57132 307.53036 4278190080
296.12079 133.67278 153.22517 4278190080
766.50391 416.56128 516.19238 4278190080
1023.7515 974.36646 890.32764 4278190080
700.69745 283.26666 266.60156 4278190080
941.73932 29.263409 197.89745 4278190080
699.59601 305.30685 767.19159 4278190080
901.72021 874.26428 588.82617 4278190080
213.9612 733.62122 451.50806 4278190080
88.644188 110.51394 448.29352 4278190080
341.16489 386.9538 519.86481 4278190080
648.69525 683.07458 653.5376 4278190080
801.92041 425.57846 46.098885 4278190080
294.11279 425.32996 1020.4653 4278190080
160.44041 102.02738 279.73199 4278190080
427.04196 19.766689 308.99539 4278190080
624.93939 719.36267 614.30225 4278190080
368.13104 597.08289 464.56656 4278190080
956.95721 811.04407 174.18776 4278190080
384.46527 899.68829 284.70169 4278190080
832.75879 216.85315 671.65546 4278190080
328.62363 865.5484 330.73004 4278190080
982.16125 643.46881 756.30853 4278190080
4.2601123 937.5816 157.63846 4278190080
0.72544575 74.022018 259.66586 4278190080
280.45743 501.064 279.43253 4278190080
589.45282 102.00342 998.79523 4278190080
179.7551 470.13446 571.87811 4278190080
644.32166 403.09167 358.92221 4278190080
818.50946 787.55695 234.61047 4278190080
79.211136 596.31573 451.46362 4278190080
750.86664 924.93939 293.01202 4278190080
57.596664 883.10059 936.48083 4278190080
813.90515 887.36072 850.06244 4278190080
971.54364 888.08618 924.08447 4278190080
207.20949 144.54359 401.14844 4278190080
486.64203 733.99646 503.15186 4278190080
461.43726 913.75153 973.28632 4278190080
9.3153934 534.07324 352.37799 4278190080
368.23761 328.58267 115.93495 4278190080
602.84808 407.79379 712.25073 4278190080
30.311672 134.66043 613.19006 4278190080
323.32367 192.25708 472.29068 4278190080
235.80452 1006.1622 335.6514 4278190080
61.866951 953.70593 199.73755 4278190080
985.95142 136.91539 344.28116 4278190080
363.09985 623.55743 54.277596 4278190080
866.25171 60.994698 968.02911 4278190080
815.53802 70.310089 478.10236 4278190080
143.91605 438.5477 806.685 4278190080
259.85101 17.39575 190.47882 4278190080
972.10168 47.707424 325.13925 4278190080
561.29181 371.0311 517.39636 4278190080
9.5824633 606.83563 499.55859 4278190080
345.23386 668.70258 429.2645 4278190080
544.97144 630.65399 566.17987 4278190080
889.25256 993.75385 165.73732 4278190080
943.53015 836.00555 226.73203 4278190080
887.55933 627.54364 297.04211 4278190080
341.66165 771.45966 735.58978 4278190080
124.34669 7.3106599 752.98553 4278190080
314.8255 979.41235 800.69299 4278190080
639.96478 516.70416 147.72408 4278190080
133.3611 526.28662 754.55969 4278190080
632.91968 871.52045 399.26227 4278190080
38.184193 392.49188 5.9162531 4278190080
604.36407 257.74445 999.6701 4278190080
770.10138 177.27461 811.67566 4278190080
996.83344 40.833912 415.21927 4278190080
269.87555 382.49557 162.67892 4278190080
1005.4653 506.84225 169.98959 4278190080
734.45087 821.66779 125.40195 4278190080
511.14386 437.63254 642.10608 4278190080
658.86792 570.99365 144.39272 4278190080
389.42764 179.91335 1015.9132 4278190080
788.68994 218.09753 384.40506 4278190080
794.6062 822.46161 642.14954 4278190080
770.27625 568.56305 819.42413 4278190080
557.9519 541.39648 860.25806 4278190080
973.1712 811.27197 218.75362 4278190080
111.85014 792.73737 725.59589 4278190080
281.83972 503.18823 523.26367 4278190080
407.2417 1014.3321 960.89624 4278190080
25.34779 649.20001 507.88986 4278190080
169.74051 14.627691 687.80322 4278190080
161.6537 803.31763 905.90076 4278190080
546.05878 573.92377 704.36237 4278190080
164.20828 320.20007 248.92537 4278190080
983.63245 878.15198 790.32184 4278190080
819.89044 827.32318 577.59381 4278190080
14.644075 939.17334 346.33118 4278190080
740.23999 197.01306 849.51941 4278190080
239.50363 604.25476 839.8515 4278190080
176.39984 629.60254 465.05151 4278190080
684.28967 799.34302 479.67923 4278190080
348.0929 960.99677 258.99683 4278190080
229.99362 483.05551 832.92065 4278190080
934.35596 647.26379 129.1207 4278190080
159.28134 606.89618 1007.2727 4278190080
949.60315 402.78665 810.59589 4278190080
503.19702 417.43076 725.76923 4278190080
849.5282 133.6707 922.78229 4278190080
675.04755 373.17435 503.03702 4278190080
490.89905 549.57416 108.63956 4278190080
955.95056 209.86388 907.9826 4278190080
411.62979 557.95679 844.97937 4278190080
670.62665 787.95038 304.03485 4278190080
479.54727 698.3064 951.29865 4278190080
608.66797 857.58771 534.19482 4278190080
591.94067 783.19092 936.98151 4278190080
378.53656 262.38791 330.41226 4278190080
80.305801 87.916069 464.08295 4278190080
1003.0881 762.96362 837.25732 4278190080
482.12512 229.86269 362.83148 4278190080
590.76471 161.81328 572.69537 4278190080
474.74728 573.44305 106.65212 4278190080
295.72662 220.06972 894.60254 4278190080
599.76147 699.617 568.90887 4278190080
527.06012 284.28497 402.49661 4278190080
37.254971 876.22565 161.68748 4278190080
974.23651 230.76222 424.07538 4278190080
280.64874 311.06802 511.99146 4278190080
744.73169 290.1561 250.95509 4278190080
557.98901 772.28125 480.81778 4278190080
920.8205 339.0459 642.63104 4278190080
469.51581 813.79321 192.07413 4278190080
576.16797 85.519821 412.14383 4278190080
446.77045 685.28131 87.760826 4278190080
1015.6793 188.34142 372.04581 4278190080
394.17593 225.59639 224.27144 4278190080
555.8634 175.83289 455.03366 4278190080
979.93884 456.48163 766.10168 4278190080
467.9303 177.21333 32.257778 4278190080
718.88538 735.20233 804.539 4278190080
175.70317 632.02283 119.58492 4278190080
818.33423 77.538635 933.37811 4278190080
1010.4083 653.7066 1018.8979 4278190080
398.55219 76.477036 680.17926 4278190080
486.31302 68.156372 868.52069 4278190080
858.35883 462.33231 70.117058 4278190080
58.630257 1018.1957 245.94994 4278190080
513.66388 974.13458 702.43158 4278190080
255.76558 418.06485 879.6449 4278190080
288.02335 112.95023 590.84723 4278190080
68.562355 288.65341 198.87006 4278190080
188.14728 82.987625 276.40869 4278190080
97.525391 69.395981 930.11523 4278190080
92.423325 467.94818 1006.5923 4278190080
772.60254 954.26123 50.748665 4278190080
617.12323 788.62006 513.08099 4278190080
687.2403 847.25031 507.27673 4278190080
933.19025 336.91418 457.41132 4278190080
611.62177 592.67975 875.47614 4278190080
467.26669 880.70312 988.42639 4278190080
34.113926 949.2655 253.0798 4278190080
232.98398 113.41275 336.06741 4278190080
509.39267 210.93814 405.46341 4278190080
415.50793 303.36145 873.41156 4278190080
398.10022 51.964024 803.67279 4278190080
448.84888 669.08728 568.29285 4278190080
961.92987 332.32755 391.54309 4278190080
445.2066 241.51776 728.45728 4278190080
902.61792 853.13953 297.13705 4278190080
754.09406 296.40622 153.84016 4278190080
718.52045 330.52017 79.105644 4278190080
971.60028 563.50415 192.51839 4278190080
283.66769 48.896797 403.45651 4278190080
689.1311 464.40472 706.81799 4278190080
538.54266 862.50494 758.78198 4278190080
318.21548 287.35382 403.86926 4278190080
886.5083 225.28368 736.19678 4278190080
254.05141 670.4903 977.71454 4278190080
982.50867 549.10815 806.85413 4278190080
255.64575 279.20224 79.260345 4278190080
409.48593 997.72272 409.78049 4278190080
488.59155 945.32294 973.28461 4278190080
681.10999 204.99065 1022.1815 4278190080
60.566483 894.12177 462.58615 4278190080
767.38446 408.66443 301.09109 4278190080
502.16647 726.87994 588.44489 4278190080
906.03577 589.38824 813.72858 4278190080
618.23254 843.43964 460.21884 4278190080
571.94708 801.9483 1009.327 4278190080
354.80121 33.594067 264.52924 4278190080
434.06155 443.07999 238.25194 4278190080
843.84204 931.67157 159.57491 4278190080
793.12671 588.78149 364.56555 4278190080
791.30817 649.34796 234.6873 4278190080
229.89429 392.73245 643.35175 4278190080
530.98535 894.89893 346.23166 4278190080
95.430267 776.93469 935.61987 4278190080
909.15881 371.16724 755.05951 4278190080
345.37769 943.11432 533.00781 4278190080
330.70468 273.91556 566.60187 4278190080
595.23395 707.97711 1009.6819 4278190080
833.4859 527.81921 917.35339 4278190080
993.06079 296.94589 482.13492 4278190080
333.62634 64.254028 107.48292 4278190080
568.31366 294.14832 500.21539 4278190080
187.66539 825.13367 371.11432 4278190080
533.89703 920.56396 124.049 4278190080
445.51694 805.72278 495.21625 4278190080
176.57643 127.10049 414.33057 4278190080
709.58423 457.80518 688.24615 4278190080
252.18613 29.03911 372.22327 4278190080
237.86801 862.52496 900.04248 4278190080
131.22144 831.58575 172.98836 4278190080
613.35638 141.21211 237.24239 4278190080
720.83929 709.52576 531.39069 4278190080
197.05466 897.19116 332.52441 4278190080
568.16901 407.0882 229.08838 4278190080
692.21796 852.60516 10.811184 4278190080
163.4342 5.1815629 137.91167 4278190080
577.76477 714.76581 595.71686 4278190080
242.01093 966.95197 624.75598 4278190080
614.23419 180.81995 463.28094 4278190080
490.27667 312.04138 270.86673 4278190080
663.26501 925.39777 412.07883 4278190080
900.50739 622.237 97.604607 4278190080
407.89813 819.29169 994.79578 4278190080
740.42255 363.46066 377.88397 4278190080
969.51093 31.678637 206.48911 4278190080
980.32208 195.11285 211.67067 4278190080
94.233765 772.87762 926.43646 4278190080
689.95062 1014.8885 869.38843 4278190080
290.70657 605.12274 26.20837 4278190080
753.98749 71.399429 338.24976 4278190080
0.85422611 734.66443 239.64749 4278190080
412.93307 611.17188 861.88452 4278190080
510.53766 1019.07 657.17621 4278190080
481.33344 735.49249 1020.6368 4278190080
859.21741 681.00342 28.315493 4278190080
41.706505 637.3255 223.42834 4278190080
253.37717 731.55927 996.30597 4278190080
155.81364 397.50989 987.19452 4278190080
1.2020636 688.21643 568.31732 4278190080
27.410435 418.20398 639.71674 4278190080
365.66019 419.0582 350.3812 4278190080
605.30768 831.99127 961.55304 4278190080
443.1922 318.52893 956.62305 4278190080
76.368393 799.86237 668.1156 4278190080
73.005249 635.07977 325.11902 4278190080
101.32075 676.78625 962.44452 4278190080
324.74908 930.16345 670.00385 4278190080
297.05505 61.977081 43.513729 4278190080
260.2496 63.179146 731.73016 4278190080
828.56696 90.589577 125.93416 4278190080
444.28366 456.24976 544.99237 4278190080
794.66486 37.557446 352.98361 4278190080
732.21796 480.74963 671.51251 4278190080
664.841 557.11804 447.37491 4278190080
308.95657 630.12329 58.45467 4278190080
634.07562 731.44403 735.24097 4278190080
572.52014 32.193123 641.40436 4278190080
218.52396 329.2482 703.38147 4278190080
262.03769 589.4978 766.56061 4278190080
993.76788 394.06473 857.15021 4278190080
95.702042 838.34839 289.39993 4278190080
640.6944 609.01331 326.9574 4278190080
993.67798 317.23123 807.70703 4278190080
641.19055 982.0722 340.82507 4278190080
64.565445 267.02881 970.94836 4278190080
123.02012 901.10443 678.3924 4278190080
858.26105 449.62454 710.58551 4278190080
475.66544 668.1485 15.833714 4278190080
155.04689 930.18622 605.33154 4278190080
921.60748 899.9541 999.39624 4278190080
754.75769 995.65613 813.74463 4278190080
20.157614 612.35052 398.75793 4278190080
347.11502 582.0285 715.98914 4278190080
130.82204 199.21907 674.0614 4278190080
471.64713 263.78452 941.09021 4278190080
418.59549 386.80463 818.19458 4278190080
72.987885 221.06569 243.81915 4278190080
783.57343 696.73114 911.96765 4278190080
799.4071 851.77802 818.15387 4278190080
380.73865 749.3855 694.10797 4278190080
356.13489 480.14316 665.7641 4278190080
145.87952 500.30078 254.11461 4278190080
544.63745 847.41577 836.14313 4278190080
236.62659 978.23779 11.3622 4278190080
910.68799 425.88495 275.14673 4278190080
827.77814 844.48041 661.95135 4278190080
621.97278 917.46832 883.01703 4278190080
865.79193 677.04169 555.74817 4278190080
753.75958 452.44885 383.52615 4278190080
547.91345 833.1875 108.91164 4278190080
218.02139 165.32234 589.05481 4278190080
883.78546 311.20187 65.355568 4278190080
113.90007 855.83929 912.77136 4278190080
950.04321 68.465881 867.00916 4278190080
961.4054 979.15387 268.8941 4278190080
212.55211 782.93201 89.374519 4278190080
874.50348 380.90475 1006.8428 4278190080
733.52051 222.69669 659.88452 4278190080
265.26865 976.45624 88.333374 4278190080
648.7948 500.36969 921.52087 4278190080
757.70642 718.39111 62.843197 4278190080
322.76126 578.17657 374.04504 4278190080
388.11682 692.0766 205.88435 4278190080
276.88815 618.11981 274.35022 4278190080
119.89732 555.52521 229.50407 4278190080
388.79141 768.07733 1012.4361 4278190080
478.16592 618.58081 369.34085 4278190080
461.00876 328.10129 592.03754 4278190080
96.893303 593.36993 544.49377 4278190080
185.22668 218.16475 20.863483 4278190080
82.747528 975.87122 739.25458 4278190080
145.59073 274.63245 293.43112 4278190080
519.6358 662.74927 985.50775 4278190080
725.52014 939.63739 579.62756 4278190080
999.87036 35.534737 111.15276 4278190080
205.37444 424.32614 879.2301 4278190080
193.81052 902.49207 473.81085 4278190080
563.15137 339.50085 801.91217 4278190080
131.18889 436.39417 371.2821 4278190080
675.68268 621.62085 589.44684 4278190080
696.54614 704.36835 541.31805 4278190080
411.80072 849.95911 815.9505 4278190080
705.23187 345.59485 454.69974 4278190080
666.73956 47.11499 370.33716 4278190080
222.36714 22.985357 405.87189 4278190080
333.5199 228.3598 830.19806 4278190080
188.74998 422.17032 708.69012 4278190080
662.56085 985.32166 24.19101 4278190080
440.47299 92.510574 460.58517 4278190080
811.75507 768.19324 58.206005 4278190080
377.20193 440.73941 762.57434 4278190080
918.51996 852.54016 588.53345 4278190080
710.47046 533.77203 934.1283 4278190080
141.1702 176.5116 981.24329 4278190080
511.50735 398.87872 1004.2286 4278190080
917.37927 732.39862 208.58846 4278190080
723.57733 921.14862 630.75879 4278190080
408.26749 559.70947 592.08044 4278190080
432.4585 1000.1824 684.591 4278190080
893.04364 787.93756 428.7843 4278190080
951.24963 141.13948 869.52368 4278190080
689.82404 35.659443 698.06384 4278190080
254.35748 746.12988 207.83586 4278190080
164.48579 887.30011 384.34744 4278190080
121.7291 374.80746 783.2262 4278190080
101.95776 268.18674 491.62482 4278190080
310.5462 991.76404 388.77344 4278190080
941.30499 376.03152 948.48291 4278190080
509.38544 808.49005 924.66534 4278190080
169.97649 677.53369 688.60291 4278190080
598.76074 604.78333 829.74237 4278190080
444.28448 270.60736 865.40186 4278190080
118.34834 524.96484 587.53174 4278190080
326.1842 689.45062 450.83182 4278190080
710.53168 811.17975 825.63928 4278190080
469.75784 913.13751 69.826012 4278190080
961.38269 199.6837 37.590065 4278190080
326.1561 116.98869 413.62161 4278190080
250.63901 626.37415 198.11162 4278190080
151.30438 796.35059 875.64532 4278190080
839.90729 371.11139 456.42865 4278190080
645.64966 815.39587 727.03601 4278190080
487.05151 933.7442 228.00085 4278190080
50.583229 235.92839 917.45148 4278190080
501.41504 946.46002 704.63123 4278190080
303.05432 392.2179 593.76874 4278190080
372.88034 329.60056 793.45239 4278190080
410.4704 655.75665 910.4411 4278190080
824.09204 906.39569 512.81525 4278190080
1022.2036 33.70005 285.16583 4278190080
873.84894 873.60736 656.27722 4278190080
306.27759 495.25702 447.6731 4278190080
