# .PCD v0.7 - Point Cloud Data file format
VERSION 0.7
FIELDS x y z rgb
SIZE 4 4 4 4
TYPE F F F U
COUNT 1 1 1 1
WIDTH 1175
HEIGHT 1
VIEWPOINT 0 0 0 1 0 0 0
POINTS 1175
DATA ascii
719.26715 187.7894 521.15485 4278190080
950.16113 178.86818 657.44446 4278190080
417.7861 94.267685 787.76569 4278190080
953.84473 605.91705 172.85454 4278190080
896.68323 290.41983 212.71982 4278190080
6.1220198 429.71085 518.42493 4278190080
400.76953 585.2995 667.77124 4278190080
890.69141 989.40015 555.09125 4278190080
758.81854 895.14948 1016.1548 4278190080
80.270882 100.23096 112.62029 4278190080
372.30576 819.49811 300.4097 4278190080
893.46063 745.65924 479.27786 4278190080
526.90509 139.44534 573.54553 4278190080
290.67078 69.290047 155.46262 4278190080
463.52533 965.97327 445.88245 4278190080
676.24512 972.09528 875.59332 4278190080
170.67007 348.86481 436.89282 4278190080
838.44135 215.55624 402.29297 4278190080
369.53259 974.37482 273.44247 4278190080
361.68747 30.645668 373.67343 4278190080
474.30777 402.95142 169.17154 4278190080
774.71747 272.41205 914.83081 4278190080
229.9953 799.31714 30.276131 4278190080
803.54083 65.98793 99.566177 4278190080
959.00348 529.51324 41.539459 4278190080
380.88593 181.75839 1013.6348 4278190080
232.47922 352.42847 338.49957 4278190080
669.37207 166.86981 554.05585 4278190080
47.66502 536.4024 504.43063 4278190080
321.10748 898.08984 535.07629 4278190080
694.78094 348.39761 938.02771 4278190080
863.95245 99.115059 186.43977 4278190080
754.78326 329.11035 985.7569 4278190080
785.05939 108.65121 27.744848 4278190080
884.62555 43.654694 557.25812 4278190080
926.16504 424.54062 739.01648 4278190080
915.7998 657.01984 67.444954 4278190080
230.29936 302.39188 234.31476 4278190080
784.35516 350.05688 770.71716 4278190080
264.7858 671.16437 644.80701 4278190080
799.86212 341.94531 993.20465 4278190080
713.88983 181.89777 68.319695 4278190080
900.32959 936.68103 397.43005 4278190080
862.08649 697.74036 506.08127 4278190080
889.83136 558.36597 549.73596 4278190080
423.08945 460.53094 974.27661 4278190080
138.10593 352.33072 607.29645 4278190080
205.55089 582.63007 909.68829 4278190080
439.86566 342.98526 235.74521 4278190080
186.58281 607.77106 906.90961 4278190080
831.38983 383.63318 224.85489 4278190080
800.59448 73.522995 406.75266 4278190080
868.91418 973.8526 319.43365 4278190080
242.34422 811.93909 1017.1741 4278190080
748.42548 677.77045 551.53998 4278190080
274.16147 76.859871 1012.0709 4278190080
224.43805 214.96581 340.40167 4278190080
831.7345 420.51669 923.03174 4278190080
717.42279 860.38232 242.01701 4278190080
953.16797 22.965158 849.78809 4278190080
836.07758 854.35498 209.42128 4278190080
36.932476 630.94946 282.94427 4278190080
443.68512 475.86362 232.79684 4278190080
763.11877 718.20782 20.735918 4278190080
756.29285 442.63333 698.50635 4278190080
283.83282 716.7948 775.36621 4278190080
271.90378 941.23285 990.33203 4278190080
612.30542 748.96735 386.84869 4278190080
511.33716 442.39014 223.23105 4278190080
753.35419 371.55811 246.19621 4278190080
579.14227 183.6357 76.551201 4278190080
788.56354 220.56818 707.50067 4278190080
47.507824 664.2533 159.36427 4278190080
280.30466 403.3721 877.57214 4278190080
301.04059 135.66495 296.20544 4278190080
999.54694 419.49777 1013.0002 4278190080
750.91315 691.40155 930.23309 4278190080
717.24518 279.70697 655.20044 4278190080
80.093857 791.04413 73.590569 4278190080
303.32492 520.39832 445.14868 4278190080
549.52112 75.540604 628.78436 4278190080
626.07233 864.10419 849.35254 4278190080
309.573 911.612 489.60583 4278190080
468.93726 167.91666 892.97797 4278190080
322.5094 468.95724 4.6428943 4278190080
618.71484 444.50418 424.14069 4278190080
607.71509 171.41731 91.542213 4278190080
513.94818 888.66248 371.24918 4278190080
145.14864 968.75629 138.29332 4278190080
218.73921 248.08122 658.69165 4278190080
663.88788 797.60236 734.23224 4278190080
268.67227 399.67468 574.33643 4278190080
94.024811 709.24768 461.94839 4278190080
583.63068 154.18492 629.86505 4278190080
452.60861 476.69431 74.822296 4278190080
457.2515 71.409142 519.32648 4278190080
881.39215 679.12421 690.74377 4278190080
972.93439 169.07243 555.40625 4278190080
320.18356 314.22107 500.16254 4278190080
458.4769 532.96027 748.24377 4278190080
93.168549 172.84818 521.84613 4278190080
827.40082 441.52045 921.52075 4278190080
377.73721 535.54523 606.76843 4278190080
839.68561 95.175896 760.95337 4278190080
445.55066 547.78448 213.64764 4278190080
520.37299 1005.036 285.05679 4278190080
15.699426 862.42816 964.18103 4278190080
706.44318 811.36255 109.25345 4278190080
237.84943 107.54613 423.47452 4278190080
738.01196 566.02301 956.43481 4278190080
462.25571 659.19159 105.28297 4278190080
984.10181 462.59238 546.80341 4278190080
881.62262 840.32959 58.348652 4278190080
464.39102 656.0152 153.52455 4278190080
201.34438 77.56588 701.30902 4278190080
414.99203 597.93884 682.34503 4278190080
700.04883 613.63824 520.77319 4278190080
640.22986 296.08145 308.13577 4278190080
749.48328 533.93091 415.68188 4278190080
148.95781 247.94284 981.7049 4278190080
81.392616 710.19855 616.89648 4278190080
186.6756 670.30042 55.488869 4278190080
733.479 527.92297 895.81848 4278190080
791.82764 992.31403 527.83368 4278190080
945.35217 169.6584 605.39954 4278190080
622.66125 584.65045 179.33839 4278190080
281.00632 260.69925 792.97668 4278190080
801.77954 900.92908 65.058121 4278190080
85.915291 626.41241 598.98901 4278190080
501.5972 775.37018 846.93182 4278190080
459.30212 856.76282 533.13037 4278190080
52.198601 19.438416 179.43079 4278190080
107.68747 752.91742 707.35376 4278190080
1003.5059 520.74506 675.66779 4278190080
507.3396 442.09729 845.32623 4278190080
88.739151 40.75853 405.97665 4278190080
268.07755 321.76483 666.6759 4278190080
37.054203 99.54435 543.60504 4278190080
102.11233 185.45964 146.0174 4278190080
701.10132 687.05682 921.38757 4278190080
524.03314 122.35894 754.15045 4278190080
33.16357 174.55754 773.58887 4278190080
212.59436 282.24503 502.50626 4278190080
919.94812 261.75095 1023.2513 4278190080
571.61597 769.09058 441.3486 4278190080
392.94214 857.82971 482.10715 4278190080
798.91882 101.90724 803.87195 4278190080
441.59473 138.96144 903.41632 4278190080
985.19971 241.07378 64.875961 4278190080
107.21713 942.17511 751.9328 4278190080
4.604733 442.20828 874.29175 4278190080
758.75519 475.37183 24.849283 4278190080
508.34399 687.96619 307.0943 4278190080
1010.8503 583.91431 568.84528 4278190080
1010.1016 131.53027 313.93579 4278190080
427.4502 524.47241 147.7655 4278190080
909.55731 299.39124 249.67274 4278190080
689.42932 740.98596 388.63419 4278190080
568.84558 702.18567 629.70795 4278190080
633.72156 809.40277 547.88306 4278190080
361.65436 814.00751 990.09131 4278190080
211.94611 548.7627 441.46317 4278190080
236.79539 33.106689 105.42937 4278190080
543.88971 19.956947 689.34369 4278190080
88.73494 6.0585346 820.87396 4278190080
402.67075 433.50873 321.34641 4278190080
550.43622 319.06604 620.73761 4278190080
800.10901 1008.4954 337.72357 4278190080
164.74318 553.34094 15.909239 4278190080
794.45117 163.06253 825.31201 4278190080
318.33423 524.71692 615.31958 4278190080
284.42557 736.66302 140.08226 4278190080
725.88873 973.45844 173.18895 4278190080
831.31812 493.34811 193.1459 4278190080
496.6618 582.08307 199.20444 4278190080
293.5358 984.75378 632.71313 4278190080
614.8822 511.19003 951.77924 4278190080
211.61981 287.29901 936.27454 4278190080
549.34338 452.04221 465.61554 4278190080
565.25262 222.49335 628.67804 4278190080
366.56467 540.82758 129.39496 4278190080
981.88422 825.25311 866.05798 4278190080
97.966499 527.14185 815.51636 4278190080
271.15546 334.45996 284.86447 4278190080
464.30136 831.12177 866.94751 4278190080
663.5058 100.65758 827.70129 4278190080
272.21896 715.53979 314.89133 4278190080
199.99817 927.15961 602.19031 4278190080
112.27274 452.50299 30.232527 4278190080
577.88824 1017.7556 252.72588 4278190080
182.56633 360.32025 793.55347 4278190080
311.9613 318.2045 594.80658 4278190080
154.01927 416.17099 97.948425 4278190080
969.53564 687.32648 432.40839 4278190080
230.40013 127.62781 239.53018 4278190080
73.347656 791.13361 340.18777 4278190080
901.04895 39.352562 31.727535 4278190080
191.94028 239.35074 958.88715 4278190080
794.13062 351.62347 387.39011 4278190080
824.36316 929.51178 381.14569 4278190080
53.089016 88.078079 741.46594 4278190080
846.64246 400.03937 35.670464 4278190080
417.44901 554.05865 451.84146 4278190080
515.39746 499.5943 115.16792 4278190080
947.80585 729.99445 242.79573 4278190080
163.33601 803.3421 9.9293365 4278190080
503.52377 680.39105 49.281898 4278190080
535.25134 872.3313 288.63263 4278190080
470.13846 642.46191 640.2561 4278190080
857.52856 442.82507 545.76788 4278190080
214.67426 495.91409 633.84595 4278190080
956.1402 318.55655 9.8853245 4278190080
991.81067 736.00555 563.94397 4278190080
419.65213 227.403 39.538258 4278190080
534.82007 151.20883 769.53265 4278190080
777.61578 314.54486 548.87476 4278190080
787.5451 818.06866 205.26579 4278190080
836.82703 329.31995 53.597115 4278190080
101.45967 799.45837 696.05902 4278190080
741.71582 632.98694 114.88412 4278190080
263.48367 847.66119 610.79822 4278190080
897.32959 779.80139 929.35474 4278190080
907.21497 747.61206 641.36029 4278190080
447.15891 143.26424 868.76331 4278190080
486.69717 678.08429 1019.9721 4278190080
232.22984 431.7001 310.51697 4278190080
781.10461 195.24522 104.58562 4278190080
986.37042 8.0722637 433.90558 4278190080
15.96752 109.53194 209.36397 4278190080
712.02655 851.24774 842.35089 4278190080
826.91071 90.731392 666.01208 4278190080
413.70889 988.06097 421.81351 4278190080
319.06363 871.27594 145.42561 4278190080
960.42395 294.43484 288.68985 4278190080
805.18719 781.13202 966.77417 4278190080
801.15936 1013.3619 374.47424 4278190080
87.676323 770.46643 569.71948 4278190080
192.26193 732.83685 577.79175 4278190080
626.16748 748.80438 687.32367 4278190080
835.53149 436.83093 514.57141 4278190080
653.88239 239.74162 605.3028 4278190080
295.8945 653.4505 569.36377 4278190080
717.70801 972.51416 416.63974 4278190080
863.13361 908.93805 711.07458 4278190080
127.82348 690.12524 468.2066 4278190080
70.597626 467.28461 457.56845 4278190080
445.07187 554.96094 204.0349 4278190080
1014.7913 747.2229 936.87177 4278190080
568.58307 349.39038 661.67615 4278190080
231.90675 160.92186 74.507095 4278190080
746.47815 814.80426 314.24872 4278190080
327.78094 86.698753 967.69922 4278190080
897.14478 804.4068 916.21338 4278190080
289.78448 643.54041 801.15143 4278190080
1000.8591 771.36389 467.27667 4278190080
445.06564 841.96149 934.56128 4278190080
902.63409 263.03339 465.52222 4278190080
82.668991 253.82474 188.74509 4278190080
1019.5408 822.40784 538.1355 4278190080
657.21692 30.314575 699.05731 4278190080
731.724 776.79272 489.86157 4278190080
21.972733 80.573685 576.56036 4278190080
989.67194 977.71844 356.9671 4278190080
881.88531 243.50291 1000.5075 4278190080
659.03674 220.36197 747.8714 4278190080
102.31342 665.42761 565.83295 4278190080
12.874702 544.06171 828.86633 4278190080
478.39691 626.73071 58.691048 4278190080
667.14203 622.27148 881.09888 4278190080
181.27748 255.48837 911.41345 4278190080
880.33484 987.2124 664.20618 4278190080
346.19638 1009.1851 744.77985 4278190080
922.75671 974.85706 698.49829 4278190080
255.72385 832.74243 942.00122 4278190080
232.23137 467.77914 138.36319 4278190080
980.10278 570.09259 803.79083 4278190080
521.93573 582.96729 323.85251 4278190080
326.80203 37.364193 950.58325 4278190080
385.49307 704.50623 548.85468 4278190080
242.59193 885.78369 804.34308 4278190080
130.00537 742.11847 767.55548 4278190080
794.21155 64.31488 752.7406 4278190080
514.99139 987.07159 703.59766 4278190080
189.4897 218.79544 512.34009 4278190080
107.49091 451.02679 980.11926 4278190080
245.8541 407.12958 526.21179 4278190080
25.644899 929.06531 85.179092 4278190080
349.49744 231.86732 122.54329 4278190080
276.08066 617.36041 827.0495 4278190080
824.93536 859.95233 688.83319 4278190080
605.27844 989.9577 406.95166 4278190080
348.83389 760.16925 471.26654 4278190080
77.574493 251.16064 434.33813 4278190080
781.17218 440.65036 653.13361 4278190080
269.51227 548.14124 80.160393 4278190080
225.6315 793.99536 487.28998 4278190080
751.84332 819.64026 392.35526 4278190080
837.0224 145.13768 624.2226 4278190080
959.56573 421.21832 217.58298 4278190080
762.61517 222.15369 53.535305 4278190080
427.44836 827.43213 19.493004 4278190080
834.40002 152.26604 779.66223 4278190080
281.66656 229.84053 6.8228998 4278190080
716.0047 1011.0127 447.47327 4278190080
345.13831 256.52496 995.6145 4278190080
425.29868 482.15646 765.60986 4278190080
912.58868 209.99979 561.25012 4278190080
280.94394 23.022209 706.38782 4278190080
905.1665 982.58789 103.60615 4278190080
98.749496 721.20312 325.75983 4278190080
152.28481 124.65149 129.19196 4278190080
171.7778 959.05151 281.45798 4278190080
951.44006 216.71808 511.29852 4278190080
958.26294 932.72278 498.31122 4278190080
381.73621 253.86108 754.83618 4278190080
353.35074 679.15979 212.99263 4278190080
94.960602 567.74841 422.99243 4278190080
656.21075 848.69238 446.01462 4278190080
338.59854 729.85889 404.60254 4278190080
442.20471 828.6084 101.80566 4278190080
767.96454 980.89319 226.45715 4278190080
897.15649 128.67097 161.50867 4278190080
154.61449 56.111034 378.22675 4278190080
665.91302 1014.374 286.94952 4278190080
140.22421 372.1102 540.81061 4278190080
895.06036 725.46094 195.97038 4278190080
84.053009 820.42151 763.71881 4278190080
507.04544 452.63226 588.41119 4278190080
953.06006 791.23083 294.27005 4278190080
333.6626 209.43552 98.878418 4278190080
435.46826 977.40002 55.771595 4278190080
661.92542 850.55652 184.44258 4278190080
823.43408 1005.171 240.5536 4278190080
177.66083 647.08405 230.9276 4278190080
464.61035 787.30823 603.03778 4278190080
1005.421 658.36859 304.49872 4278190080
177.39137 742.42163 100.92024 4278190080
941.11017 225.46706 553.55249 4278190080
505.52136 154.52711 320.78333 4278190080
799.79138 488.18973 530.21887 4278190080
898.6698 923.65796 483.6189 4278190080
954.44141 561.58337 310.17542 4278190080
114.88398 361.01746 291.34647 4278190080
355.43759 538.67828 938.43048 4278190080
586.36517 1003.2886 701.73871 4278190080
165.40298 984.70966 336.10733 4278190080
469.9017 138.101 54.528973 4278190080
570.82196 55.211174 279.99603 4278190080
100.37446 560.73254 434.52316 4278190080
421.15778 336.52393 922.71289 4278190080
951.37665 211.19374 822.37085 4278190080
410.99551 141.63515 359.95422 4278190080
721.17096 256.51913 720.97168 4278190080
1012.5174 611.95673 235.64998 4278190080
926.94788 174.32191 214.93863 4278190080
604.68658 339.72488 175.64825 4278190080
940.79395 809.62659 313.74924 4278190080
995.32294 356.44855 368.96042 4278190080
251.31895 456.823 929.69293 4278190080
685.8421 877.98077 242.21686 4278190080
584.55499 805.35742 453.41061 4278190080
382.92581 192.35295 595.04572 4278190080
742.88007 913.52393 851.56488 4278190080
439.85175 902.04132 439.52158 4278190080
675.50171 804.9892 613.84351 4278190080
890.44037 385.67578 953.56842 4278190080
42.088596 302.46973 739.19501 4278190080
355.83786 273.79266 71.643547 4278190080
724.79828 525.11163 528.46655 4278190080
630.49121 186.9537 382.44736 4278190080
872.70807 771.50867 163.80478 4278190080
302.11868 130.43448 356.15775 4278190080
897.16443 873.31451 245.68163 4278190080
724.72931 289.16626 123.72293 4278190080
140.25089 964.66797 928.7121 4278190080
754.09436 831.10828 290.38791 4278190080
683.66278 873.1969 592.8576 4278190080
398.85779 205.03474 866.65027 4278190080
470.50131 929.83301 367.76187 4278190080
998.9679 536.32422 554.71558 4278190080
357.41522 385.03232 302.22427 4278190080
521.22003 687.151 432.65875 4278190080
877.37775 560.31543 281.97327 4278190080
99.059387 261.04471 571.13953 4278190080
222.78232 401.29559 511.8075 4278190080
127.49443 131.38998 318.9158 4278190080
417.88232 815.05273 168.11269 4278190080
1010.74 189.91054 373.14743 4278190080
853.39026 660.41187 278.98047 4278190080
197.15213 635.37976 815.30469 4278190080
751.86774 992.79498 176.33701 4278190080
30.09199 490.01498 863.48798 4278190080
462.75073 343.39276 399.80341 4278190080
744.724 442.45215 660.84814 4278190080
291.86353 665.23444 38.143723 4278190080
803.67102 792.72888 169.53371 4278190080
98.586807 186.61122 984.58649 4278190080
266.69949 173.35118 150.49701 4278190080
639.84692 2.7414207 810.90887 4278190080
918.82739 199.89355 422.2886 4278190080
710.13208 951.76129 391.08359 4278190080
886.46912 981.85327 881.09857 4278190080
725.95709 420.604 200.49135 4278190080
101.76052 141.32802 642.94348 4278190080
762.60864 433.19156 284.17795 4278190080
800.75238 212.86256 52.906818 4278190080
970.28607 311.44937 239.51804 4278190080
930.87256 578.14886 412.8692 4278190080
57.369545 193.99582 415.61063 4278190080
868.27844 88.823212 615.50421 4278190080
266.56702 798.95532 543.26544 4278190080
657.65063 661.42444 501.11871 4278190080
514.74921 363.3815 921.72272 4278190080
715.24054 465.14203 39.050739 4278190080
334.18402 203.75069 472.24228 4278190080
618.36194 1004.5031 685.10486 4278190080
671.2688 950.78912 996.55426 4278190080
910.7868 857.66168 550.70312 4278190080
299.65604 915.03119 744.69891 4278190080
715.26666 759.30963 833.52216 4278190080
306.77084 1.8766546 608.47742 4278190080
850.03632 659.52728 245.90184 4278190080
327.15503 150.27649 609.28339 4278190080
224.87776 865.51703 50.425396 4278190080
263.9285 175.70107 254.17609 4278190080
736.17078 794.06305 234.67914 4278190080
397.27563 441.33182 161.46828 4278190080
369.82986 328.11865 1019.1299 4278190080
920.53296 627.77466 910.16119 4278190080
641.23187 319.04135 645.47076 4278190080
450.75403 625.81219 647.34747 4278190080
35.231457 451.84851 282.87473 4278190080
281.1333 779.00354 433.15121 4278190080
890.41669 1003.8813 274.66824 4278190080
940.84204 243.8098 450.36932 4278190080
171.01814 979.98059 220.43234 4278190080
405.69727 353.25623 661.76416 4278190080
567.16553 723.08606 989.88281 4278190080
562.29553 619.61908 593.65747 4278190080
448.45667 236.85094 912.69885 4278190080
69.92746 687.60498 514.51105 4278190080
717.2749 722.83643 966.35956 4278190080
1000.1497 1003.9697 721.36316 4278190080
409.30084 870.38641 701.24445 4278190080
683.96906 787.22845 945.05426 4278190080
110.33839 958.24658 901.03485 4278190080
330.77075 339.94388 230.29105 4278190080
992.53491 907.10944 953.37714 4278190080
958.41772 445.40494 548.99615 4278190080
528.0752 893.86157 785.84711 4278190080
416.77408 963.78906 449.45209 4278190080
931.28516 657.06396 148.2885 4278190080
873.64471 633.21362 128.25822 4278190080
571.00787 18.514442 998.64459 4278190080
248.25229 702.48352 761.87305 4278190080
169.30653 812.8219 696.11963 4278190080
46.341362 119.59265 12.06353 4278190080
276.63242 88.127556 919.17297 4278190080
206.00954 22.54528 340.57788 4278190080
755.00574 550.62048 210.4395 4278190080
516.85284 967.39459 150.22855 4278190080
966.30493 874.67969 807.29254 4278190080
90.593399 724.3244 416.50613 4278190080
218.85162 271.33224 435.02057 4278190080
193.49623 519.58453 113.50409 4278190080
955.36932 688.89105 926.32599 4278190080
627.48895 735.23242 21.918653 4278190080
639.55249 1011.8649 110.04621 4278190080
534.72546 193.87437 132.59149 4278190080
875.30334 948.88007 683.21198 4278190080
61.742828 441.73291 626.60657 4278190080
211.97137 384.03781 477.28625 4278190080
1019.2639 474.63123 177.61067 4278190080
411.77002 693.48285 448.94293 4278190080
846.79059 886.97906 968.52747 4278190080
960.29468 818.34839 633.41852 4278190080
862.62073 421.83731 344.65097 4278190080
884.53937 37.389809 332.51581 4278190080
994.58557 572.11523 526.3902 4278190080
103.17706 423.41858 451.27026 4278190080
786.38904 485.16141 893.00317 4278190080
388.99561 697.13281 253.041 4278190080
866.28186 692.39673 727.67224 4278190080
19.89254 80.166733 397.15506 4278190080
468.83548 926.95734 260.13416 4278190080
413.36295 863.25201 54.482513 4278190080
22.781479 701.87274 476.31982 4278190080
367.43246 562.41211 513.70966 4278190080
699.9483 532.99768 61.824894 4278190080
202.33849 636.17468 485.24347 4278190080
653.60876 398.56375 970.40491 4278190080
522.61194 787.55939 643.53772 4278190080
775.65295 629.84125 311.93439 4278190080
479.32516 649.73376 392.10114 4278190080
876.48022 94.569229 295.05847 4278190080
112.61438 507.93216 134.3105 4278190080
167.09689 530.71362 836.18323 4278190080
643.41675 898.14612 374.59534 4278190080
133.12637 574.09442 907.59296 4278190080
194.95128 776.43286 519.7677 4278190080
680.19476 406.04163 918.33142 4278190080
626.59967 928.65356 681.89081 4278190080
246.13734 680.30652 287.73203 4278190080
558.07172 135.63171 937.46576 4278190080
950.17285 1012.1119 8.0350208 4278190080
221.23134 100.72633 515.96716 4278190080
355.54184 267.82324 22.680832 4278190080
167.72508 911.23999 920.82697 4278190080
542.32043 20.366341 470.92133 4278190080
425.91339 215.31761 223.3542 4278190080
945.68109 895.51239 629.39581 4278190080
840.01251 498.11203 534.04944 4278190080
497.90332 744.24939 190.35594 4278190080
785.63538 278.32111 325.98764 4278190080
699.10114 204.49396 314.09961 4278190080
707.13617 425.72531 414.82593 4278190080
199.10335 781.26715 682.64917 4278190080
221.78418 948.99225 569.8891 4278190080
118.61113 467.31265 590.25549 4278190080
589.53247 893.22607 805.57306 4278190080
812.88666 814.90717 677.08545 4278190080
418.2825 630.91968 151.19746 4278190080
952.33191 104.82303 895.44684 4278190080
118.68786 890.45837 149.76793 4278190080
444.67551 565.55951 354.2619 4278190080
758.77509 248.69571 779.98718 4278190080
149.60104 447.79907 537.25433 4278190080
832.25018 669.58325 462.24658 4278190080
378.13934 788.1944 929.5592 4278190080
968.39484 353.72684 798.78528 4278190080
749.9679 142.61349 589.69244 4278190080
403.05334 560.896 196.61215 4278190080
554.25079 489.22791 301.43518 4278190080
425.69763 607.91577 167.89359 4278190080
575.46558 28.591276 733.45312 4278190080
929.72748 787.36639 982.1488 4278190080
685.71466 936.96741 405.94788 4278190080
198.96898 745.21765 51.531132 4278190080
661.21558 99.356987 839.72552 4278190080
566.77478 43.751801 169.45233 4278190080
341.56009 793.71967 312.06583 4278190080
931.2525 172.77304 872.96185 4278190080
103.86469 727.02386 338.18973 4278190080
405.29987 128.72148 946.10553 4278190080
573.19348 704.18707 974.69678 4278190080
282.64658 609.91449 738.06317 4278190080
240.79539 271.62915 651.03058 4278190080
646.74329 470.59811 372.24826 4278190080
698.27441 107.81366 471.60526 4278190080
513.99994 674.58844 515.35706 4278190080
683.45227 1016.1485 285.07672 4278190080
995.51807 923.40106 457.84976 4278190080
844.47992 3.2657375 160.87361 4278190080
158.66965 408.56561 289.59509 4278190080
80.775154 981.75903 993.78217 4278190080
31.471935 240.40562 579.69666 4278190080
769.5351 481.20102 851.32581 4278190080
396.5657 103.94429 297.92389 4278190080
768.81396 802.21869 405.73755 4278190080
216.4192 292.2186 56.325993 4278190080
731.77625 975.67084 48.47451 4278190080
1016.853 947.18896 971.87555 4278190080
450.70276 767.66888 975.1413 4278190080
611.57635 926.3385 359.70691 4278190080
901.17145 1007.1137 317.46597 4278190080
870.95361 14.585615 557.87158 4278190080
426.65024 784.12073 15.072622 4278190080
253.97601 156.68642 119.01691 4278190080
551.8999 925.50037 921.2356 4278190080
957.63745 117.91959 189.45422 4278190080
1013.9634 849.6958 141.12509 4278190080
38.437965 842.54883 64.314041 4278190080
1010.3135 269.25156 831.98291 4278190080
961.45483 880.82788 734.32141 4278190080
297.16174 757.99939 717.43512 4278190080
614.62769 604.95294 732.02075 4278190080
148.49931 7.6032033 492.14145 4278190080
163.57193 261.57922 648.82788 4278190080
282.58884 813.47913 550.32825 4278190080
179.82446 747.11658 668.2478 4278190080
369.27869 737.08002 493.94366 4278190080
510.40378 775.51801 312.49246 4278190080
574.71783 761.83154 581.74402 4278190080
382.70074 699.28638 438.57193 4278190080
93.022156 996.44806 172.57129 4278190080
810.45728 587.07581 777.52423 4278190080
518.47797 735.57513 785.12744 4278190080
1010.6194 899.14703 22.706673 4278190080
635.44727 157.7359 836.18579 4278190080
161.77554 337.56036 559.30237 4278190080
830.02338 706.83905 272.38242 4278190080
299.96701 193.24284 23.900415 4278190080
612.45947 767.96063 785.73193 4278190080
170.20349 126.66139 461.01828 4278190080
608.77539 219.68355 433.46637 4278190080
781.34668 6.1408186 1020.5422 4278190080
534.87097 524.61884 732.11731 4278190080
295.99838 511.23822 607.26434 4278190080
318.70508 122.68552 765.00024 4278190080
130.89087 284.46106 78.560577 4278190080
690.19324 90.484436 785.39966 4278190080
962.57568 390.45145 978.64246 4278190080
986.47607 1002.9109 722.60315 4278190080
748.20801 149.11443 849.26453 4278190080
185.2263 757.88983 44.948078 4278190080
618.69269 515.23651 51.088898 4278190080
615.23486 26.10747 575.7077 4278190080
323.35214 322.10587 62.945938 4278190080
930.61646 640.81091 185.63147 4278190080
671.6167 771.70178 470.09253 4278190080
750.17725 437.89502 560.57697 4278190080
511.5769 376.4707 951.02844 4278190080
466.21936 338.94678 929.93933 4278190080
164.82249 63.154789 55.053783 4278190080
1014.087 248.3811 812.9436 4278190080
35.035107 867.07379 304.18015 4278190080
86.124008 458.30865 330.28763 4278190080
661.83173 781.66077 652.39349 4278190080
724.77765 688.27728 269.20441 4278190080
910.40912 335.89395 16.906195 4278190080
356.50165 62.071205 454.80124 4278190080
917.07861 573.64807 831.27191 4278190080
844.10706 15.86747 146.2187 4278190080
750.04639 180.68997 209.37349 4278190080
805.10016 170.77699 457.75458 4278190080
594.04382 205.8121 300.82837 4278190080
898.22394 291.9361 759.13702 4278190080
204.51155 953.76782 516.79779 4278190080
856.90503 654.54547 181.07507 4278190080
102.10944 540.95459 516.96899 4278190080
119.01563 897.45624 579.04022 4278190080
573.81683 790.53485 128.68832 4278190080
381.08878 610.64191 144.55579 4278190080
527.3075 336.68829 325.24576 4278190080
736.68097 117.78847 496.02277 4278190080
170.43556 711.83228 701.83484 4278190080
471.26395 586.05621 993.771 4278190080
206.40096 790.56775 923.53882 4278190080
723.19879 623.47278 554.08429 4278190080
904.27386 725.58221 71.038857 4278190080
397.24286 844.59784 968.49512 4278190080
976.28308 394.4147 735.02997 4278190080
80.971382 775.50348 321.67184 4278190080
225.52718 278.81097 658.36017 4278190080
550.77295 1015.4919 776.14862 4278190080
22.795689 161.92749 463.98087 4278190080
724.63055 633.19141 26.037062 4278190080
694.40155 839.59241 816.6048 4278190080
593.94031 538.79114 416.07761 4278190080
124.02459 419.065 117.65981 4278190080
195.06345 816.30786 962.25763 4278190080
139.55855 768.59094 332.67236 4278190080
874.5885 849.56232 84.175842 4278190080
172.26035 51.089478 362.98682 4278190080
830.62048 601.86243 354.47876 4278190080
582.7691 624.65808 516.40625 4278190080
22.74996 325.28864 125.59768 4278190080
48.787022 1019.6902 965.19006 4278190080
865.39185 589.63049 479.98123 4278190080
257.46942 713.65509 899.0462 4278190080
375.12924 908.71851 691.35406 4278190080
313.3869 24.277077 435.94501 4278190080
646.05927 898.8656 261.50729 4278190080
730.23511 47.125927 312.59677 4278190080
69.221893 877.7464 914.45917 4278190080
423.70065 436.5155 515.11725 4278190080
940.10687 459.26547 840.40594 4278190080
41.704567 508.05249 836.09607 4278190080
1006.8947 349.44434 401.72659 4278190080
462.87585 606.91376 91.381676 4278190080
337.92209 982.04297 1000.1002 4278190080
5.2761698 271.4299 0.37728024 4278190080
441.22116 917.48914 899.24286 4278190080
702.72845 623.72418 946.36877 4278190080
1015.3253 692.94611 800.11517 4278190080
905.78442 92.646744 212.63071 4278190080
396.9017 8.7536354 671.89618 4278190080
213.30762 50.458206 155.94868 4278190080
25.403708 33.35284 505.39301 4278190080
427.13031 496.2287 88.306778 4278190080
518.51196 834.15082 46.349777 4278190080
494.61218 839.42694 317.77966 4278190080
494.98944 256.64813 211.2688 4278190080
370.2323 959.37659 834.99298 4278190080
292.6011 950.70184 503.93912 4278190080
68.716293 832.48627 596.58588 4278190080
281.34702 205.38794 605.33948 4278190080
953.24323 418.69556 655.79773 4278190080
85.191879 444.09927 689.15051 4278190080
590.5849 871.22955 161.37924 4278190080
678.89166 365.74152 995.53003 4278190080
725.24146 860.3537 810.95703 4278190080
19.021124 331.34314 43.605152 4278190080
230.28992 701.57544 1002.9818 4278190080
41.282925 994.17657 929.68359 4278190080
545.22205 38.892845 738.1698 4278190080
117.8079 320.23987 943.5578 4278190080
723.1474 249.48305 338.25333 4278190080
354.9451 334.67493 782.3526 4278190080
20.095634 925.25983 629.58215 4278190080
181.47488 580.15149 995.32367 4278190080
153.00493 281.39297 831.67737 4278190080
963.96198 300.41409 139.02052 4278190080
1007.5671 530.70404 840.59601 4278190080
986.54883 571.98694 810.77252 4278190080
892.23242 93.208977 849.66541 4278190080
606.40228 211.01688 145.90524 4278190080
525.96002 934.16425 395.38828 4278190080
864.21338 265.10938 730.06323 4278190080
622.56598 285.20499 631.32306 4278190080
228.1481 466.67987 187.47458 4278190080
199.47177 619.68481 468.86755 4278190080
7.1491518 559.64679 769.28162 4278190080
146.16968 543.21387 275.98566 4278190080
986.76569 505.7627 847.9726 4278190080
773.53821 373.99515 941.18158 4278190080
599.20355 980.3974 128.19846 4278190080
745.10883 482.35742 38.362717 4278190080
116.4971 322.57077 303.47208 4278190080
846.5603 945.13672 588.67706 4278190080
453.88339 149.28484 31.356958 4278190080
641.35797 348.75662 651.04175 4278190080
86.225494 355.90576 186.68854 4278190080
855.50714 502.07544 729.9024 4278190080
107.49279 464.84109 211.6651 4278190080
955.46539 214.37929 585.66022 4278190080
872.64697 813.58289 542.05762 4278190080
1000.8454 534.69171 0.41504812 4278190080
15.208128 651.18878 322.98584 4278190080
318.68021 473.74911 244.12256 4278190080
907.3573 927.63251 393.40738 4278190080
938.71423 544.99042 742.164 4278190080
565.75604 631.21594 74.069763 4278190080
752.44458 462.72308 576.1452 4278190080
458.34695 570.21588 16.986301 4278190080
670.01202 501.68127 231.3656 4278190080
231.67229 350.32822 20.948467 4278190080
773.72992 327.17365 555.64014 4278190080
774.14496 342.38177 182.82893 4278190080
73.130791 661.06195 656.57806 4278190080
317.25336 544.41925 560.21057 4278190080
710.66077 459.13351 81.200989 4278190080
428.82474 0.88952351 712.41693 4278190080
502.8945 753.33405 151.14001 4278190080
55.039707 187.68102 721.3559 4278190080
72.026009 857.69305 199.03717 4278190080
303.3916 65.365356 549.36542 4278190080
324.34006 839.09528 876.539 4278190080
879.98022 589.24023 194.92079 4278190080
38.809162 662.37103 855.98279 4278190080
695.38721 979.62439 376.40204 4278190080
231.59775 666.2851 835.53552 4278190080
312.79874 71.10984 836.42505 4278190080
1.2156792 574.00433 565.75916 4278190080
152.3557 629.04407 753.44019 4278190080
873.71161 701.07007 587.13324 4278190080
48.748764 1004.4617 652.4986 4278190080
598.11414 304.80176 467.59384 4278190080
450.6532 160.78197 32.834072 4278190080
645.57397 199.59113 695.20508 4278190080
477.55676 894.97833 650.82947 4278190080
853.9588 102.5761 293.11456 4278190080
665.49432 415.37485 364.2244 4278190080
477.91937 416.59052 938.22876 4278190080
19.678518 568.94623 543.27277 4278190080
773.11865 418.65781 220.34286 4278190080
336.25189 467.40659 200.80453 4278190080
988.75049 41.520733 505.60629 4278190080
432.34433 492.17392 666.38824 4278190080
465.17841 113.7479 865.97937 4278190080
136.38348 591.30463 736.9577 4278190080
787.21295 421.26343 839.53381 4278190080
56.327477 62.757759 230.90865 4278190080
420.55188 540.67712 647.49915 4278190080
334.78061 560.35565 192.44537 4278190080
878.05341 309.47433 611.10321 4278190080
74.396263 645.72626 54.509766 4278190080
275.20081 610.47668 96.030495 4278190080
780.80707 18.821037 588.20441 4278190080
423.19534 483.99942 701.95233 4278190080
265.17471 620.38293 269.25696 4278190080
1002.1324 383.59583 690.52039 4278190080
817.66626 439.92331 753.2782 4278190080
24.574886 860.47516 269.95532 4278190080
672.07404 171.2558 830.31097 4278190080
864.51941 25.309195 115.7853 4278190080
451.62262 99.70546 761.51154 4278190080
506.13239 374.90625 347.98825 4278190080
602.1629 131.71335 366.8093 4278190080
166.36729 554.90869 850.80872 4278190080
868.31958 820.08337 447.19165 4278190080
113.57658 798.21582 830.78748 4278190080
804.09698 591.88208 246.71078 4278190080
533.37518 616.45697 83.185974 4278190080
803.33044 264.53101 254.44177 4278190080
609.64142 105.05042 279.75095 4278190080
725.42676 556.67303 379.45642 4278190080
462.93826 38.805405 754.36267 4278190080
810.92651 640.96826 886.07605 4278190080
153.73582 807.33557 416.98471 4278190080
1004.5446 651.65515 213.0681 4278190080
427.73618 765.23175 1011.2839 4278190080
234.52365 545.32874 579.16602 4278190080
481.23444 54.703903 171.62294 4278190080
564.42041 858.03436 436.15393 4278190080
818.86218 443.67581 541.20435 4278190080
74.613152 145.10254 73.877388 4278190080
454.06958 608.04083 112.68279 4278190080
184.43225 394.96735 753.65106 4278190080
46.508289 548.70319 536.98663 4278190080
463.49301 529.24774 164.64182 4278190080
676.5611 956.98389 929.8736 4278190080
663.84503 167.50755 451.20233 4278190080
219.01102 648.742 505.90622 4278190080
390.63394 189.16243 339.94058 4278190080
826.7879 1008.0246 783.61639 4278190080
343.99225 58.637775 928.71893 4278190080
417.86963 512.70734 512.75977 4278190080
530.55243 697.13959 907.72711 4278190080
260.20349 743.64789 432.43027 4278190080
797.19012 183.1409 961.67798 4278190080
961.83197 859.70203 894.66187 4278190080
867.70557 499.54703 38.169445 4278190080
294.90787 718.55804 686.91144 4278190080
800.81409 85.192001 876.07385 4278190080
116.75468 911.97992 860.09851 4278190080
900.37109 231.97214 918.73627 4278190080
805.09003 649.8418 407.44363 4278190080
293.84976 156.39421 80.583237 4278190080
177.57687 416.59772 824.23114 4278190080
610.00714 189.78786 1007.372 4278190080
547.68512 127.61983 843.07404 4278190080
418.34705 995.32538 318.62106 4278190080
456.51648 266.23325 13.179098 4278190080
119.42793 43.047325 98.371101 4278190080
995.50183 159.802 1010.351 4278190080
831.60034 36.173088 218.32314 4278190080
726.33661 841.26312 868.16492 4278190080
109.78023 111.11288 0.55913258 4278190080
190.36346 288.68976 417.15686 4278190080
1014.5946 898.6969 606.9447 4278190080
997.96661 422.38205 734.56451 4278190080
817.04065 840.72906 705.88989 4278190080
111.6617 273.24554 972.12311 4278190080
124.8408 392.67349 1015.1705 4278190080
223.2119 364.17529 150.97247 4278190080
209.56288 171.77562 187.14555 4278190080
427.88602 898.11218 4.4086642 4278190080
272.05093 1007.8925 115.52155 4278190080
272.61008 174.25589 404.2113 4278190080
689.76691 164.85048 278.9082 4278190080
272.71164 138.81711 701.29022 4278190080
1007.2762 955.85773 518.01929 4278190080
689.16608 43.519444 791.26489 4278190080
637.28918 168.36024 159.93835 4278190080
628.45966 391.57214 524.11365 4278190080
779.43213 601.13501 695.88928 4278190080
966.5777 5.021049 570.00146 4278190080
970.98633 277.07199 553.89392 4278190080
62.507893 549.68207 728.14978 4278190080
466.71918 215.44899 893.00031 4278190080
745.62738 488.16061 7.8173962 4278190080
422.9176 471.4368 963.67517 4278190080
940.93695 136.60286 1007.1946 4278190080
708.20178 773.89209 151.55482 4278190080
868.14014 378.35172 543.12695 4278190080
368.25378 133.78386 120.26199 4278190080
40.143051 76.361534 125.28304 4278190080
610.14453 23.347887 402.35504 4278190080
140.03844 85.855774 952.03711 4278190080
868.18823 552.57495 143.48608 4278190080
737.18854 274.20233 631.64673 4278190080
745.00592 697.11993 79.083511 4278190080
684.68109 614.05688 215.68639 4278190080
667.87567 298.2587 989.57843 4278190080
819.43048 142.39883 343.93018 4278190080
338.55746 510.65262 477.71402 4278190080
458.81943 550.79565 554.07556 4278190080
584.10248 136.9402 577.42346 4278190080
986.45752 276.97864 663.27924 4278190080
914.49457 121.16689 191.85419 4278190080
33.980686 858.35547 466.05652 4278190080
665.62738 579.36139 139.1765 4278190080
744.71094 240.04247 753.2334 4278190080
960.39728 907.91815 27.492067 4278190080
925.97577 703.34863 169.8909 4278190080
245.90591 17.90609 680.54352 4278190080
723.61993 476.72552 207.33919 4278190080
253.69551 36.827999 344.27939 4278190080
831.11896 1023.2855 621.25806 4278190080
470.39819 913.78009 742.42493 4278190080
662.25238 947.7608 576.7804 4278190080
104.3089 589.38818 132.14175 4278190080
243.4854 310.09912 372.18423 4278190080
996.71875 246.49641 256.10236 4278190080
0.21084595 148.47215 959.45099 4278190080
170.10175 394.37808 977.35712 4278190080
850.64526 93.998016 430.08261 4278190080
33.984444 347.69351 466.91061 4278190080
378.26382 154.81247 466.19614 4278190080
999.52185 625.21063 355.97623 4278190080
717.94678 263.46301 279.737 4278190080
270.72717 367.77194 869.12518 4278190080
402.86893 611.25732 155.22429 4278190080
775.05316 583.97607 401.7207 4278190080
7.1555138 584.18695 550.19287 4278190080
966.60651 754.2887 944.57092 4278190080
919.96362 580.93396 14.568946 4278190080
326.04623 614.9184 362.26248 4278190080
792.95685 993.18225 517.07495 4278190080
235.15298 968.7041 118.2856 4278190080
591.12921 662.65088 381.74863 4278190080
870.86621 933.37805 749.52057 4278190080
715.99139 312.24695 336.77789 4278190080
871.2157 63.300102 920.75397 4278190080
248.93639 70.45562 480.94095 4278190080
799.12921 13.062136 211.22963 4278190080
719.7002 933.02576 792.16357 4278190080
734.2691 235.07198 383.08197 4278190080
72.531578 4.0288391 352.26422 4278190080
589.60651 239.18182 296.96829 4278190080
707.89215 830.31104 959.6192 4278190080
65.640755 677.17725 868.99725 4278190080
815.16132 369.16861 157.24419 4278190080
127.9392 216.38428 220.54428 4278190080
24.693192 465.32068 290.99991 4278190080
505.63412 240.44991 304.06204 4278190080
716.86377 960.15009 213.08778 4278190080
485.02734 670.41919 448.15976 4278190080
868.10931 742.95074 452.1886 4278190080
196.37354 308.55728 691.37042 4278190080
493.34186 1016.4494 497.68146 4278190080
428.96103 58.090172 150.85866 4278190080
273.95825 873.25146 520.02728 4278190080
431.20245 1001.1907 736.41156 4278190080
651.7467 1.8838782 177.73221 4278190080
942.74664 507.51801 418.18213 4278190080
222.80867 200.38177 354.33218 4278190080
435.89645 685.40912 0.75137091 4278190080
884.05621 529.51843 743.70215 4278190080
312.24484 725.89203 28.259426 4278190080
1003.6153 195.23386 20.708843 4278190080
477.29672 624.19489 78.799011 4278190080
628.1554 898.15314 952.05048 4278190080
124.18265 305.35559 929.24121 4278190080
860.59418 957.10229 931.12506 4278190080
14.326405 875.84894 414.64307 4278190080
432.50851 74.657623 615.02484 4278190080
786.8407 510.55408 276.43399 4278190080
787.5921 370.61032 805.95245 4278190080
507.29422 682.85516 507.84445 4278190080
535.55365 662.47046 703.07831 4278190080
556.26251 115.76715 303.27319 4278190080
635.06152 743.92255 177.42632 4278190080
563.112 868.10516 482.78189 4278190080
468.35318 704.69934 415.88422 4278190080
375.47827 719.02576 267.73315 4278190080
790.12134 127.53429 342.39078 4278190080
381.14618 914.375 852.94489 4278190080
657.5802 677.9671 199.55518 4278190080
439.53262 161.26129 882.41034 4278190080
947.37708 696.81494 520.8808 4278190080
626.45538 229.07742 636.64795 4278190080
929.72858 864.13892 356.57047 4278190080
83.154877 403.25092 200.67564 4278190080
565.93677 871.60413 905.375 4278190080
981.82098 223.08237 600.40082 4278190080
225.55412 1013.2037 727.93512 4278190080
567.94489 370.34988 618.31012 4278190080
396.88977 3.9300709 272.27719 4278190080
596.44495 443.46271 433.53848 4278190080
454.85529 366.83978 106.35342 4278190080
975.73608 993.29517 335.43085 4278190080
588.38403 899.02368 175.56976 4278190080
944.95447 982.17859 578.82068 4278190080
121.63013 524.11536 426.4248 4278190080
3.0051575 481.93634 649.5072 4278190080
603.40594 707.49048 638.71088 4278190080
307.34103 251.43535 1009.0608 4278190080
925.65112 648.32513 1012.9908 4278190080
173.92831 220.77005 432.45355 4278190080
607.4668 675.62537 799.29333 4278190080
713.82019 627.36145 768.58844 4278190080
25.251041 191.74544 643.61218 4278190080
200.8208 112.69993 601.79077 4278190080
779.64148 234.33006 101.90612 4278190080
182.0663 237.33522 583.84247 4278190080
831.57349 840.74115 267.33289 4278190080
446.28433 124.08221 518.76825 4278190080
431.34512 25.733349 143.09337 4278190080
420.33597 199.66167 363.86343 4278190080
852.78949 807.12842 15.488766 4278190080
628.08282 496.94864 642.85016 4278190080
372.67126 522.19971 834.59564 4278190080
1016.2834 723.02051 947.29553 4278190080
594.07422 478.66199 157.62561 4278190080
695.98035 660.72827 394.96085 4278190080
255.82278 468.30176 211.70201 4278190080
523.1557 914.58612 335.78424 4278190080
17.923931 321.93121 361.51758 4278190080
161.0173 742.26715 561.17926 4278190080
524.88074 571.05664 344.30768 4278190080
540.36951 175.13948 841.25635 4278190080
159.21967 547.81073 339.45602 4278190080
993.81531 540.09418 38.476517 4278190080
917.11084 110.1684 517.13849 4278190080
50.736465 806.14874 153.86679 4278190080
445.6973 37.971512 622.16852 4278190080
657.39929 561.1272 512.75464 4278190080
993.18353 579.05115 834.68585 4278190080
330.70111 740.06842 552.953 4278190080
891.88037 240.94913 100.00969 4278190080
212.18805 781.3186 275.14917 4278190080
29.444374 940.53827 822.9599 4278190080
368.90039 910.35358 339.05411 4278190080
407.37692 803.46442 449.2225 4278190080
924.51544 854.20087 231.37125 4278190080
54.382214 275.89819 269.34274 4278190080
676.55078 933.29749 830.46991 4278190080
165.3054 902.48108 385.52106 4278190080
999.99127 209.18217 101.58948 4278190080
528.94427 77.062538 342.5386 4278190080
628.95398 289.25058 99.857224 4278190080
904.10315 318.69495 16.395508 4278190080
703.06305 687.59534 926.74908 4278190080
18.11714 70.972267 706.2135 4278190080
467.33966 995.48767 536.41443 4278190080
698.71088 25.869904 812.31262 4278190080
968.05365 702.42065 721.61011 4278190080
774.52356 867.72607 600.09119 4278190080
136.04463 843.71735 809.27332 4278190080
237.63411 348.66159 886.33588 4278190080
580.17273 977.61554 151.58646 4278190080
680.02997 857.71869 470.2814 4278190080
696.42548 536.78174 133.87677 4278190080
599.17456 554.89886 204.84903 4278190080
281.38806 1022.2385 176.33673 4278190080
817.80243 696.9494 202.20663 4278190080
606.11505 641.00305 904.62732 4278190080
303.72513 391.52661 748.35333 4278190080
903.81628 527.57123 568.07068 4278190080
689.08966 765.20538 916.7323 4278190080
551.42554 321.37808 870.34784 4278190080
703.01196 1001.408 704.06653 4278190080
149.29341 673.8335 216.84827 4278190080
283.17017 249.00803 771.74713 4278190080
488.01923 530.39606 769.98566 4278190080
664.35596 324.19852 442.93506 4278190080
866.56256 930.31354 59.93811 4278190080
747.18988 210.03871 451.46472 4278190080
471.54321 89.855011 979.03595 4278190080
15.613892 778.94464 720.24133 4278190080
932.34619 306.37018 17.619432 4278190080
778.69397 1009.3822 1019.0275 4278190080
458.76053 134.6756 668.86096 4278190080
675.60883 417.84576 917.86902 4278190080
423.35593 905.86499 424.26508 4278190080
169.3416 546.22095 748.46362 4278190080
612.27667 388.78348 654.77716 4278190080
672.21478 111.97335 864.81586 4278190080
99.679504 583.51654 954.6709 4278190080
54.715481 599.13043 709.61554 4278190080
774.95685 507.47662 1015.9857 4278190080
792.57623 262.17062 1001.3679 4278190080
787.6037 720.93115 112.0435 4278190080
432.46469 372.53995 529.88928 4278190080
326.33368 795.89587 411.75424 4278190080
750.59875 965.23749 957.97516 4278190080
475.06235 553.51416 322.75867 4278190080
105.83951 201.72893 434.73203 4278190080
970.6554 301.40842 1018.2486 4278190080
901.32623 356.1239 593.37903 4278190080
586.94177 107.08073 76.855659 4278190080
578.92749 899.65698 339.02628 4278190080
556.29541 663.26074 35.957432 4278190080
668.33893 71.72541 408.49738 4278190080
174.2282 398.05908 180.39325 4278190080
585.98242 124.65784 121.63074 4278190080
519.95764 599.72021 675.1449 4278190080
842.71631 705.55969 876.87384 4278190080
253.4483 652.21509 154.28224 4278190080
247.6969 529.54132 510.40616 4278190080
841.07593 92.483109 617.48688 4278190080
917.93158 671.41064 493.14389 4278190080
232.95787 203.70605 132.4046 4278190080
268.91531 872.04498 204.13002 4278190080
677.41266 22.273178 602.18909 4278190080
857.80597 608.25562 726.84698 4278190080
979.43671 104.21326 302.56714 4278190080
630.58154 946.92957 1008.1268 4278190080
483.45538 176.37787 636.34192 4278190080
637.73761 424.07477 141.88324 4278190080
124.14377 241.1507 234.36635 4278190080
741.63068 135.08229 905.77698 4278190080
210.77454 368.04016 85.483025 4278190080
343.17914 636.95544 957.52802 4278190080
547.30914 290.36816 979.80121 4278190080
125.49828 124.17409 564.05682 4278190080
852.34521 79.610771 668.27008 4278190080
130.91237 710.19232 591.19965 4278190080
115.03922 169.64771 767.57751 4278190080
751.38116 807.38531 167.65224 4278190080
893.2644 931.52911 408.80292 4278190080
103.63072 649.15973 543.88519 4278190080
1009.4077 859.93427 911.92535 4278190080
70.890717 179.11342 524.88086 4278190080
4.4187202 726.42261 815.24896 4278190080
984.21991 851.92084 939.4231 4278190080
524.27673 680.26611 1019.0339 4278190080
168.54678 811.17847 705.2262 4278190080
759.7464 926.21765 874.8739 4278190080
503.32391 653.59882 658.25922 4278190080
670.97614 522.86322 565.78827 4278190080
55.779072 626.4939 190.94803 4278190080
599.66431 611.90161 26.882309 4278190080
487.58966 682.79236 205.99573 4278190080
1012.4705 687.21106 932.41833 4278190080
803.71948 647.43097 760.33917 4278190080
719.14258 147.70767 416.60526 4278190080
714.17645 316.25446 203.78371 4278190080
395.40262 52.00087 106.0014 4278190080
246.27649 555.32477 759.60022 4278190080
904.53571 202.30092 258.46341 4278190080
446.32401 258.07999 884.95734 4278190080
637.27203 857.74426 472.85895 4278190080
664.15436 321.33392 131.65128 4278190080
870.15009 309.80444 818.8623 4278190080
778.56836 89.523926 442.29327 4278190080
514.90753 808.6665 590.00092 4278190080
931.51282 498.84293 906.25537 4278190080
111.29651 894.24554 958.25629 4278190080
217.2979 116.52202 489.58105 4278190080
976.89813 1021.0577 691.88196 4278190080
211.36153 443.38171 949.96191 4278190080
72.318855 56.653732 783.70624 4278190080
545.1778 720.80804 81.040146 4278190080
676.82904 566.95813 390.84457 4278190080
471.69138 321.52649 480.3685 4278190080
913.98468 836.43402 265.035 4278190080
479.9856 743.94684 763.87793 4278190080
362.241 855.24335 634.12347 4278190080
296.49725 48.541241 750.64551 4278190080
786.07831 1.4393582 747.70319 4278190080
453.96027 212.80089 167.08492 4278190080
379.92218 285.11972 223.73865 4278190080
139.6284 830.29755 944.54669 4278190080
220.66855 483.12659 487.50485 4278190080
611.51312 954.81799 809.03131 4278190080
67.881645 844.80261 621.46539 4278190080
332.91666 300.78821 341.4122 4278190080
72.794586 663.02924 172.65555 4278190080
706.91803 959.52649 221.19678 4278190080
433.56354 721.6048 222.63614 4278190080
157.26675 151.56503 435.43701 4278190080
324.35168 531.48724 720.55676 4278190080
548.09033 671.11566 526.85431 4278190080
468.63705 891.78418 1009.9809 4278190080
956.14191 479.29733 940.79883 4278190080
741.17322 547.17896 761.60144 4278190080
338.63858 880.09564 38.38969 4278190080
680.05078 952.8902 701.41888 4278190080
852.70636 635.80829 636.94537 4278190080
49.903122 45.371811 334.55017 4278190080
272.53928 202.63857 486.1152 4278190080
707.97632 526.99023 1017.6024 4278190080
404.53305 51.080574 664.71808 4278190080
931.38733 519.71759 532.50226 4278190080
917.36823 451.8595 1011.7996 4278190080
834.16705 169.03273 534.97852 4278190080
571.76855 507.67133 391.07416 4278190080
610.1582 163.72212 319.96439 4278190080
287.57712 1016.4285 955.77264 4278190080
924.52252 42.331589 1001.1445 4278190080
235.07266 314.87085 179.78302 4278190080
721.18787 1022.8472 706.77325 4278190080
