# .PCD v0.7 - Point Cloud Data file format
VERSION 0.7
FIELDS x y z rgb
SIZE 4 4 4 4
TYPE F F F U
COUNT 1 1 1 1
WIDTH 1175
HEIGHT 1
VIEWPOINT 0 0 0 1 0 0 0
POINTS 1175
DATA ascii
86.909164 968.1861 956.75989 4278190080
471.65692 324.21829 620.11133 4278190080
604.72931 435.48459 950.67102 4278190080
969.08948 538.37103 439.43719 4278190080
448.5289 221.28822 510.38226 4278190080
41.995369 734.19647 775.97882 4278190080
182.54114 693.1272 659.73389 4278190080
655.92249 838.56195 989.63086 4278190080
997.80621 923.539 829.7594 4278190080
880.53674 105.02469 264.48297 4278190080
43.757446 191.93385 208.66908 4278190080
1000.5173 663.59076 532.88739 4278190080
596.6286 244.32008 968.37195 4278190080
523.29962 189.40956 482.74301 4278190080
962.73682 637.93848 704.03125 4278190080
449.11908 679.93384 414.22769 4278190080
201.09789 862.47498 83.354866 4278190080
860.83179 494.39746 921.91681 4278190080
826.46265 468.20364 821.45581 4278190080
632.22205 324.74036 926.48053 4278190080
896.70502 368.4978 94.414368 4278190080
81.374107 345.01511 758.00513 4278190080
614.26147 941.64374 1002.3253 4278190080
558.63342 440.94336 167.7348 4278190080
17.376459 379.68018 805.67328 4278190080
721.40771 828.79926 461.60709 4278190080
111.63539 5.8971348 300.08203 4278190080
194.99025 866.72888 794.47949 4278190080
92.907066 669.19153 238.68312 4278190080
914.36292 277.4136 563.42346 4278190080
816.84338 150.11862 931.92126 4278190080
911.25775 231.49274 252.9364 4278190080
645.26294 845.75421 170.58012 4278190080
623.58813 380.38766 611.5235 4278190080
791.32294 397.7641 991.20367 4278190080
572.99622 95.171806 796.00287 4278190080
10.603288 206.80719 801.90002 4278190080
310.68533 401.79745 644.62891 4278190080
81.164803 494.70453 289.8205 4278190080
319.84793 385.06741 567.23407 4278190080
883.27142 177.91081 717.35272 4278190080
791.19269 65.168587 948.84546 4278190080
20.129089 710.43152 770.59967 4278190080
190.70921 310.01968 126.9873 4278190080
802.23273 77.342636 524.7514 4278190080
769.43634 650.33887 619.92322 4278190080
541.43921 660.94214 826.73041 4278190080
319.33926 971.62744 204.52786 4278190080
963.9682 28.792259 699.23236 4278190080
229.78868 348.6402 60.299797 4278190080
797.02277 207.91159 238.21062 4278190080
490.37546 999.10431 303.37921 4278190080
415.22092 1019.2334 1013.8107 4278190080
161.82056 185.9426 299.83038 4278190080
288.80786 988.17529 377.173 4278190080
813.55927 733.61163 3.5118589 4278190080
409.48248 251.05087 664.45398 4278190080
212.21291 570.39014 612.08142 4278190080
416.74075 510.35834 640.87372 4278190080
91.973152 740.14703 989.51392 4278190080
152.27295 513.1698 173.42548 4278190080
390.48355 1003.5452 148.52975 4278190080
693.86273 394.76614 143.76312 4278190080
683.67346 556.58673 329.70572 4278190080
983.50385 845.39453 293.88101 4278190080
336.67685 634.9538 3.4926519 4278190080
340.18872 20.436308 254.54353 4278190080
1004.6427 232.6492 824.93365 4278190080
592.72418 649.38995 311.29199 4278190080
209.59787 741.3631 27.439011 4278190080
175.11176 893.63605 540.60876 4278190080
348.53723 260.11963 520.15405 4278190080
497.06699 953.98236 914.92017 4278190080
640.83014 613.65588 447.50687 4278190080
970.53583 573.15973 268.90143 4278190080
240.41687 909.83655 903.85529 4278190080
243.90952 226.0253 924.29156 4278190080
498.45303 206.66801 132.94078 4278190080
299.38672 799.39215 782.33075 4278190080
610.67871 1008.9901 499.69388 4278190080
638.11774 160.10181 369.32996 4278190080
154.7265 508.63904 629.44958 4278190080
674.88055 1005.7061 559.43195 4278190080
565.80072 622.53619 149.08783 4278190080
1013.3076 569.07202 722.24756 4278190080
258.20905 809.48889 608.08411 4278190080
138.0643 29.398399 834.10944 4278190080
38.355862 527.85144 16.777422 4278190080
171.29665 827.23816 816.16962 4278190080
953.62738 413.91687 801.15967 4278190080
429.32126 28.034584 961.26147 4278190080
798.65118 182.76109 445.90048 4278190080
404.1008 857.6416 427.60654 4278190080
963.53278 399.44235 26.142702 4278190080
88.62059 388.74994 595.21472 4278190080
810.86816 646.95898 380.70361 4278190080
394.95224 785.02325 410.10202 4278190080
205.06166 823.37909 937.95343 4278190080
221.83908 994.67578 741.19159 4278190080
14.008677 924.30316 131.10846 4278190080
815.16833 329.62442 159.14305 4278190080
752.42975 104.27563 341.90414 4278190080
174.33026 508.37643 175.54576 4278190080
601.93677 447.90918 574.9881 4278190080
628.07947 536.52979 963.73804 4278190080
199.29422 323.39792 586.69702 4278190080
579.9978 718.35016 347.72025 4278190080
990.09985 923.4118 147.09937 4278190080
904.05328 121.2509 117.77513 4278190080
621.24487 135.25958 18.078281 4278190080
752.35333 950.42792 347.7027 4278190080
911.4964 678.85767 451.97833 4278190080
229.40053 853.18793 960.35474 4278190080
404.94629 431.12469 384.26392 4278190080
979.93439 35.204189 920.7937 4278190080
919.67242 234.4984 220.19162 4278190080
482.36942 814.49622 938.54181 4278190080
830.08966 780.59607 837.95361 4278190080
977.18903 660.64935 959.20453 4278190080
70.964172 257.8942 70.464081 4278190080
89.042458 1010.2476 1020.892 4278190080
436.74515 897.74396 675.74963 4278190080
888.72345 103.14445 504.93756 4278190080
825.07825 508.09073 936.06226 4278190080
185.34215 464.02512 971.26648 4278190080
82.135864 359.69754 181.76486 4278190080
302.32748 842.06696 996.26111 4278190080
216.86926 648.15662 752.85712 4278190080
30.822868 601.3457 389.50647 4278190080
990.02734 672.30988 647.40063 4278190080
36.491451 761.35229 633.64819 4278190080
33.38343 174.09747 507.39212 4278190080
709.13306 38.82095 610.53656 4278190080
190.07063 863.89917 94.627327 4278190080
102.13289 25.241329 558.65247 4278190080
49.399345 107.37719 918.34998 4278190080
231.1642 409.70468 736.41699 4278190080
203.42528 626.57397 360.57361 4278190080
956.28241 657.39679 961.91931 4278190080
321.78885 623.42419 610.22919 4278190080
969.18951 659.91565 347.58148 4278190080
578.83771 693.29907 521.67896 4278190080
62.229858 378.43213 560.49988 4278190080
672.76642 568.50275 400.39908 4278190080
767.3938 670.63568 425.64041 4278190080
302.04623 720.03503 533.01758 4278190080
196.39622 951.19922 942.72229 4278190080
932.81317 130.62448 545.2962 4278190080
269.38681 62.906891 178.69304 4278190080
207.30611 384.69574 802.11725 4278190080
817.53528 329.88528 438.03287 4278190080
141.11676 908.72302 107.33192 4278190080
662.79572 970.95288 485.76407 4278190080
199.29561 619.7193 30.266846 4278190080
599.6947 363.11307 700.90253 4278190080
1.3350935 665.1593 396.93753 4278190080
534.35272 861.55554 324.13672 4278190080
453.07498 770.36871 454.76123 4278190080
998.37122 15.755546 517.66809 4278190080
153.06422 223.06166 902.36389 4278190080
955.18146 16.596931 208.24915 4278190080
369.21429 157.71368 92.972145 4278190080
476.54623 820.5094 39.925007 4278190080
962.3103 1019.805 659.64429 4278190080
992.57715 595.49969 1022.7574 4278190080
669.47968 596.83478 663.91669 4278190080
42.417183 107.18748 501.47223 4278190080
366.55392 560.26245 247.84097 4278190080
821.31512 534.63367 263.5965 4278190080
314.98325 687.69788 486.65817 4278190080
193.34711 618.87933 503.2551 4278190080
401.59625 988.09363 660.96881 4278190080
494.56839 440.63983 457.47818 4278190080
534.49341 378.95013 453.28317 4278190080
170.13771 347.52728 24.782867 4278190080
168.89511 1017.007 621.61768 4278190080
832.81183 35.424129 728.80511 4278190080
310.28406 401.97806 265.06757 4278190080
558.125 199.29318 799.70123 4278190080
821.7215 514.27643 463.39908 4278190080
284.3797 707.62354 58.278381 4278190080
787.63477 85.219788 22.371992 4278190080
424.60358 579.78821 463.01184 4278190080
882.08173 90.281586 841.96198 4278190080
311.36493 260.41931 165.48926 4278190080
336.1478 429.31442 158.49622 4278190080
957.76544 238.12624 193.92033 4278190080
662.57056 548.41028 595.89838 4278190080
927.63812 82.535286 795.19159 4278190080
703.33936 904.25684 285.46799 4278190080
142.73842 164.63651 993.09155 4278190080
201.0168 952.2713 54.311321 4278190080
223.38879 352.87488 634.09949 4278190080
686.40063 210.95662 724.3811 4278190080
504.36261 522.32153 984.80042 4278190080
669.85187 858.46936 390.11481 4278190080
828.34808 792.2348 628.24103 4278190080
1022.2684 430.80536 152.65132 4278190080
594.16681 334.44351 235.1866 4278190080
365.35837 13.78285 115.44341 4278190080
650.82635 156.52127 280.0799 4278190080
619.91791 357.53806 208.3512 4278190080
674.22919 580.92688 561.22607 4278190080
284.3287 243.32748 772.18268 4278190080
1008.7098 747.69006 270.50424 4278190080
969.51019 393.54196 104.97357 4278190080
335.62503 197.89001 897.20837 4278190080
963.86609 196.15843 304.01373 4278190080
92.51738 790.32526 638.45721 4278190080
327.70398 131.68359 652.24005 4278190080
443.1474 782.50995 808.76135 4278190080
723.22729 378.42783 142.29941 4278190080
931.57849 28.657011 723.22626 4278190080
468.80457 312.98572 966.55377 4278190080
216.98726 297.69553 690.24384 4278190080
487.49149 243.20572 59.785774 4278190080
592.46509 578.83075 257.67578 4278190080
465.67343 518.69678 453.83423 4278190080
769.68713 611.21417 220.15945 4278190080
384.14438 938.91815 351.84305 4278190080
12.384454 358.06555 110.35298 4278190080
821.14581 57.292877 488.78079 4278190080
963.44519 988.8714 517.43781 4278190080
662.67145 433.67596 830.42352 4278190080
605.22522 650.66321 104.11903 4278190080
271.46906 114.1547 347.32474 4278190080
331.25482 706.61975 926.15546 4278190080
588.9306 148.29318 420.85226 4278190080
18.764851 917.98035 8.0664511 4278190080
238.92432 278.12469 946.98462 4278190080
590.76733 290.50916 281.05017 4278190080
701.12036 87.654961 338.34305 4278190080
165.90114 27.10017 303.21445 4278190080
683.33893 689.77167 736.89038 4278190080
489.76245 270.99686 363.55362 4278190080
593.88147 542.46594 477.70834 4278190080
941.20624 873.72076 160.32809 4278190080
843.36176 438.65137 308.62128 4278190080
240.214 457.4162 202.60161 4278190080
248.28046 696.34052 480.72632 4278190080
171.26508 263.10788 771.23547 4278190080
452.31525 964.22821 858.89044 4278190080
790.65833 106.12934 885.9906 4278190080
69.872765 789.46826 551.76227 4278190080
806.76318 255.23074 822.75909 4278190080
146.3168 849.11224 341.22504 4278190080
624.02515 766.31848 190.94577 4278190080
784.35321 585.68024 629.59711 4278190080
68.97451 825.89423 63.013329 4278190080
271.57611 50.174675 759.35382 4278190080
752.30243 221.43974 1022.4617 4278190080
499.5379 673.755 962.68994 4278190080
334.42834 440.41333 44.819275 4278190080
196.41895 510.2861 834.28754 4278190080
748.18121 293.04926 65.518303 4278190080
546.94031 439.36609 914.63055 4278190080
888.16534 39.391212 656.94904 4278190080
55.111111 823.74445 218.62926 4278190080
684.70825 892.71893 20.523478 4278190080
747.72156 140.29507 70.698151 4278190080
483.07541 892.59747 292.13791 4278190080
481.53714 368.13541 965.89288 4278190080
420.22705 702.56372 382.30624 4278190080
465.04633 898.98267 892.59235 4278190080
275.33389 623.16388 161.64159 4278190080
340.8522 146.1042 601.00769 4278190080
231.48274 10.269543 640.39886 4278190080
888.43176 65.380653 440.14331 4278190080
83.061028 750.08887 308.86227 4278190080
103.5845 473.81046 449.15735 4278190080
174.28265 956.88586 317.75485 4278190080
466.42056 414.423 685.89026 4278190080
408.31348 834.65009 364.45398 4278190080
790.61969 275.69641 239.43668 4278190080
659.21204 551.03027 862.60059 4278190080
820.85358 891.88251 1008.7048 4278190080
397.86127 99.365227 1018.9743 4278190080
14.260138 987.797 60.35495 4278190080
454.40344 46.858021 810.44385 4278190080
763.26575 150.44252 260.2543 4278190080
188.42307 324.72519 193.14017 4278190080
506.17792 791.14575 607.56317 4278190080
168.06815 175.45921 418.21323 4278190080
532.52216 966.07892 693.90961 4278190080
771.9588 601.29095 220.93993 4278190080
610.55939 398.14453 88.822418 4278190080
595.2641 796.0058 188.18764 4278190080
590.2384 810.26593 151.98463 4278190080
650.59338 240.6694 198.84267 4278190080
437.0372 1003.9351 349.28519 4278190080
697.2915 168.35818 674.01038 4278190080
890.43164 674.53607 441.1561 4278190080
473.99484 842.60425 616.6153 4278190080
892.20807 351.12637 558.69421 4278190080
562.11768 99.085175 135.98517 4278190080
783.05762 709.64453 534.1297 4278190080
871.88007 280.90863 306.1355 4278190080
36.067692 871.14703 92.401451 4278190080
188.05234 497.74042 333.07083 4278190080
386.89499 934.77759 313.00598 4278190080
736.18018 608.06909 481.36417 4278190080
386.19055 474.50076 131.90025 4278190080
827.34668 948.49561 974.50452 4278190080
419.96198 816.70367 301.63086 4278190080
978.65625 354.82135 400.71603 4278190080
90.641388 113.87899 86.360565 4278190080
624.77112 985.75903 367.2692 4278190080
930.90662 1021.8267 214.41626 4278190080
1023.308 185.87906 712.15668 4278190080
332.37891 572.77405 622.93427 4278190080
645.38489 284.95422 207.00339 4278190080
102.74902 671.14478 681.50415 4278190080
234.64928 474.49142 605.99976 4278190080
185.15376 894.45343 398.70343 4278190080
486.78464 849.10962 753.52478 4278190080
887.50067 939.75104 867.40381 4278190080
973.86121 540.52216 829.16284 4278190080
317.13043 447.42874 826.98956 4278190080
531.54669 446.73679 1012.8686 4278190080
219.70337 779.11572 561.6427 4278190080
842.63763 400.50058 846.59692 4278190080
25.641041 503.2496 493.7417 4278190080
707.1452 737.89886 968.23315 4278190080
289.14496 923.05261 838.68658 4278190080
687.84839 385.83725 663.7962 4278190080
417.37317 249.33792 579.54724 4278190080
260.77695 199.19916 96.069366 4278190080
65.939758 516.32959 543.49811 4278190080
892.92932 23.876297 990.23492 4278190080
881.79791 243.57967 745.35059 4278190080
419.44061 62.217319 121.85117 4278190080
242.03752 87.85836 625.10077 4278190080
735.77924 795.00354 338.99963 4278190080
680.01233 60.148514 238.05226 4278190080
494.69891 747.99689 623.88953 4278190080
134.4951 141.37006 873.22742 4278190080
714.04236 402.147 48.426601 4278190080
810.11169 468.08676 564.75623 4278190080
329.6098 337.01608 588.63251 4278190080
295.84473 194.81401 832.21216 4278190080
17.195324 614.25464 894.4295 4278190080
139.04649 856.29211 982.28784 4278190080
764.14728 568.07135 753.29138 4278190080
79.146881 224.08371 813.43994 4278190080
317.19913 718.78259 537.43683 4278190080
941.08862 853.27771 678.80688 4278190080
790.3161 543.32001 56.953873 4278190080
838.74268 329.43173 525.04065 4278190080
379.4989 659.04156 862.0567 4278190080
968.13141 954.88629 32.870728 4278190080
776.34357 972.0816 647.12537 4278190080
646.77307 87.128082 479.41751 4278190080
605.06091 851.27533 23.488855 4278190080
334.35229 930.42224 247.57256 4278190080
123.79221 223.62135 966.35516 4278190080
661.229 140.71001 795.63287 4278190080
316.03589 931.02612 314.95291 4278190080
372.98978 745.7688 644.38464 4278190080
898.0304 101.2677 279.42618 4278190080
736.0871 45.399094 210.31245 4278190080
768.95782 821.74268 158.39404 4278190080
392.08319 444.51569 245.52213 4278190080
871.50067 25.576576 72.797462 4278190080
894.98956 359.92886 1003.2197 4278190080
118.5621 483.72107 202.84103 4278190080
60.917271 120.95009 343.55106 4278190080
856.55017 436.98599 250.57716 4278190080
147.50305 809.97577 996.34595 4278190080
791.8877 684.00616 73.61367 4278190080
47.313873 396.09326 119.01277 4278190080
257.62631 141.05109 940.75543 4278190080
416.02036 533.13428 361.27112 4278190080
661.54248 380.63498 386.84769 4278190080
734.33997 251.62453 746.77655 4278190080
713.55963 370.18661 206.49762 4278190080
916.4007 431.10388 327.44772 4278190080
235.95172 263.65405 764.43372 4278190080
486.5289 411.15707 550.40942 4278190080
458.87485 179.04477 210.41557 4278190080
532.48853 226.35864 606.50885 4278190080
651.50128 483.98495 747.55994 4278190080
568.25671 900.00531 256.69421 4278190080
929.52783 537.54779 637.32916 4278190080
292.37552 247.88776 888.95367 4278190080
15.152076 961.44739 235.14032 4278190080
221.6497 853.84808 666.2442 4278190080
549.09741 65.799782 929.89825 4278190080
289.5311 552.32867 317.05533 4278190080
839.94055 1011.2036 496.1001 4278190080
26.356121 519.69208 722.45874 4278190080
632.86493 147.19336 182.44373 4278190080
356.42487 715.45007 58.449051 4278190080
613.11908 620.97791 595.99689 4278190080
226.44826 913.35345 843.88464 4278190080
91.401947 928.50549 781.33203 4278190080
326.54227 126.15521 611.18005 4278190080
992.7865 675.25262 676.97986 4278190080
898.68475 964.78375 205.30852 4278190080
191.7401 780.7243 192.51205 4278190080
687.84021 807.08038 712.2041 4278190080
386.29895 415.94534 859.39746 4278190080
568.74268 772.37024 550.84753 4278190080
627.19171 361.48929 147.82547 4278190080
199.1886 587.93756 37.178913 4278190080
19.073229 679.33948 965.68445 4278190080
800.40527 1005.8818 67.839645 4278190080
387.58533 974.66827 743.09229 4278190080
40.565166 849.35303 683.87604 4278190080
245.87369 17.093119 440.60031 4278190080
438.38574 704.93335 223.68071 4278190080
126.58985 67.232285 639.6261 4278190080
985.9873 635.97498 387.99631 4278190080
512.8349 239.1667 749.4856 4278190080
660.66034 438.35532 313.42316 4278190080
697.83929 457.42853 992.76263 4278190080
639.52368 233.83379 974.64441 4278190080
707.36334 621.41907 925.31268 4278190080
426.45563 661.98425 750.66571 4278190080
86.33165 907.85797 767.75885 4278190080
526.93195 322.24368 448.69214 4278190080
750.61267 448.83353 515.92444 4278190080
366.23874 410.82086 127.89941 4278190080
754.23505 923.65576 367.0661 4278190080
479.72064 560.3161 805.42145 4278190080
793.1438 234.15541 238.84996 4278190080
761.90643 873.67914 472.68375 4278190080
712.55084 557.04248 70.102829 4278190080
613.86353 983.49811 732.0871 4278190080
340.52924 45.82975 615.94507 4278190080
84.288071 572.76172 938.18872 4278190080
532.98022 299.37436 363.02228 4278190080
24.904665 665.6131 773.84314 4278190080
152.80408 395.84814 673.4989 4278190080
519.87018 875.56879 209.81503 4278190080
301.29163 644.71259 443.97043 4278190080
540.1416 382.61902 293.64954 4278190080
1012.8253 71.169861 850.69202 4278190080
58.928139 685.03339 810.19012 4278190080
791.01526 1.562644 856.0199 4278190080
382.96027 85.850716 404.78159 4278190080
297.14899 618.83093 704.15594 4278190080
660.17126 643.7356 345.76907 4278190080
410.0144 796.53967 741.61725 4278190080
59.513306 292.40988 593.18604 4278190080
269.32834 593.70148 213.89861 4278190080
713.29877 109.84306 596.51764 4278190080
1006.9483 98.668365 667.6875 4278190080
833.64032 157.5965 328.72089 4278190080
619.83044 948.61176 330.28354 4278190080
451.85034 307.57199 416.13425 4278190080
856.6319 604.72101 10.965188 4278190080
536.78784 240.89226 654.70081 4278190080
882.55695 650.90668 427.24048 4278190080
600.17413 710.41998 719.65033 4278190080
169.36018 979.74829 289.35184 4278190080
383.25879 669.04706 399.19489 4278190080
979.77643 651.99536 497.86325 4278190080
623.46393 461.63574 655.45978 4278190080
952.18481 57.466187 580.07147 4278190080
258.46832 509.31653 887.64349 4278190080
674.60254 341.94843 468.36447 4278190080
685.56775 878.73633 709.25677 4278190080
316.26855 737.29321 336.16342 4278190080
743.50903 313.46738 22.583395 4278190080
439.15936 482.82758 1002.3317 4278190080
728.51117 866.08636 647.37878 4278190080
103.70608 821.86279 275.37418 4278190080
601.56934 421.32669 737.00989 4278190080
233.02907 349.51147 794.47607 4278190080
813.10059 607.9798 279.7926 4278190080
676.74402 258.58237 621.74103 4278190080
121.10853 944.15015 476.47733 4278190080
830.3653 236.41867 189.77057 4278190080
142.5287 979.92767 503.23795 4278190080
165.11209 395.08707 986.06555 4278190080
143.4438 99.598259 828.15192 4278190080
790.82257 203.30434 626.01465 4278190080
42.196739 804.87366 23.341339 4278190080
779.2066 13.90274 372.85281 4278190080
549.68274 827.0033 980.83258 4278190080
829.47534 479.74734 215.41495 4278190080
427.21637 600.8559 135.56506 4278190080
903.69373 407.22116 371.98373 4278190080
69.464264 549.74988 327.91144 4278190080
572.70221 714.86194 722.99847 4278190080
534.76776 858.30579 822.59674 4278190080
338.91965 625.12836 1.9010911 4278190080
964.93433 667.32507 806.77478 4278190080
988.27563 422.53171 820.67749 4278190080
337.12845 972.21442 623.68079 4278190080
293.96103 777.68976 79.428139 4278190080
509.37601 180.9061 680.284 4278190080
644.94104 60.599792 63.505177 4278190080
1016.9248 130.06406 613.25507 4278190080
320.83624 702.7663 304.117 4278190080
19.834724 213.53404 138.42274 4278190080
842.43146 552.45367 763.55109 4278190080
844.33258 493.38797 406.87616 4278190080
627.1073 457.6636 829.40784 4278190080
423.78482 794.79205 777.62225 4278190080
23.465618 64.753105 531.31201 4278190080
102.89376 574.12909 712.21814 4278190080
783.1778 195.07016 772.81793 4278190080
846.68298 187.99496 902.88196 4278190080
435.93799 508.83121 581.64825 4278190080
740.05499 528.66589 795.18231 4278190080
878.47772 347.09741 323.63596 4278190080
618.02881 167.42996 817.02393 4278190080
0.90497589 794.53729 250.68756 4278190080
830.31287 194.32211 21.47962 4278190080
583.93512 217.78772 86.232727 4278190080
91.247139 320.68149 660.36182 4278190080
803.46527 79.859261 855.43201 4278190080
552.28314 926.54224 19.426954 4278190080
431.16513 338.48022 528.25818 4278190080
1012.8134 54.535198 32.924076 4278190080
783.99567 933.01294 380.02148 4278190080
83.631645 527.04175 547.45142 4278190080
900.65558 527.94672 317.98871 4278190080
127.34315 334.25958 512.31085 4278190080
148.82277 918.1947 730.09857 4278190080
235.0555 1009.4418 26.780039 4278190080
895.4173 788.9071 106.63931 4278190080
726.8493 317.19025 9.1815224 4278190080
746.27625 748.35541 347.66174 4278190080
250.53441 737.16876 402.19693 4278190080
283.4585 497.16446 311.20987 4278190080
663.47998 580.79608 838.25159 4278190080
186.9314 457.45169 342.19833 4278190080
504.9201 584.7948 676.45789 4278190080
1017.231 733.61761 570.65259 4278190080
723.32947 968.6731 556.09442 4278190080
750.10956 840.09039 321.0015 4278190080
856.74884 542.9397 638.19177 4278190080
865.93036 265.21597 362.54712 4278190080
189.5921 515.75037 75.715897 4278190080
591.789 799.20886 572.88037 4278190080
902.9989 438.68881 129.67644 4278190080
717.25049 625.62018 587.12811 4278190080
35.448856 106.54031 147.92294 4278190080
711.9068 99.771263 881.54053 4278190080
258.55939 823.10077 826.21362 4278190080
814.65381 549.21027 642.30402 4278190080
111.6553 381.95914 161.24373 4278190080
749.84705 223.8895 426.45969 4278190080
88.39418 413.4816 942.21008 4278190080
164.11008 1005.2706 717.41895 4278190080
736.99042 884.26953 132.10773 4278190080
866.66687 577.52002 757.72791 4278190080
429.79498 612.96887 864.26825 4278190080
577.7179 300.87564 964.03949 4278190080
435.25845 559.435 763.14026 4278190080
237.47209 350.08884 288.35056 4278190080
879.77612 461.74414 670.30969 4278190080
17.019861 187.59119 894.19922 4278190080
443.47955 275.98535 283.68079 4278190080
361.68961 440.09543 264.95142 4278190080
55.108528 153.08586 125.22094 4278190080
187.21625 1019.7527 702.74097 4278190080
944.94415 425.5477 291.70984 4278190080
785.2124 1003.2656 592.58551 4278190080
725.25195 414.52408 128.02054 4278190080
464.39218 651.99615 478.10938 4278190080
752.74274 507.77231 939.85352 4278190080
399.05243 524.79218 103.44467 4278190080
269.25162 968.27173 379.43005 4278190080
552.93243 305.96133 819.52545 4278190080
817.88385 361.06985 972.61133 4278190080
943.1048 548.28613 968.36407 4278190080
621.84576 469.23029 369.91174 4278190080
913.5556 230.44272 349.17737 4278190080
482.14111 955.69464 763.70142 4278190080
610.16162 396.08682 391.69763 4278190080
64.271004 124.82957 899.46991 4278190080
1004.1245 523.88202 400.26208 4278190080
83.569168 793.13361 344.53381 4278190080
462.99921 322.06607 650.49512 4278190080
258.52469 115.94991 1011.565 4278190080
207.13603 35.054688 535.85114 4278190080
151.50008 656.90045 1005.0814 4278190080
521.4118 546.45605 211.52415 4278190080
870.58917 4.5971498 143.2188 4278190080
610.29065 614.75879 539.3056 4278190080
1001.9882 679.02979 664.13519 4278190080
877.45819 659.1543 164.01721 4278190080
253.72026 742.72345 957.15082 4278190080
598.25409 181.72267 255.2169 4278190080
224.74921 440.24734 371.16681 4278190080
212.31421 647.38336 406.2215 4278190080
748.16534 798.88348 39.121929 4278190080
729.24677 296.29529 585.57794 4278190080
940.77094 142.88448 590.17511 4278190080
59.989723 753.17511 180.93391 4278190080
599.29535 731.16333 859.96368 4278190080
239.43056 584.62152 495.11801 4278190080
403.44775 838.3418 213.84146 4278190080
336.5986 412.59583 395.56412 4278190080
591.81549 637.34503 835.81146 4278190080
962.9823 849.65924 459.19485 4278190080
345.2038 573.82458 234.07832 4278190080
384.32571 279.07138 530.3736 4278190080
969.90369 195.8423 673.25812 4278190080
536.0788 255.83203 402.4332 4278190080
717.0127 855.12738 109.59654 4278190080
552.97644 70.55793 694.21808 4278190080
24.094423 474.00568 508.55981 4278190080
237.93588 810.60431 921.15564 4278190080
633.5 378.41977 534.50067 4278190080
445.31146 317.4021 360.15994 4278190080
904.50635 662.6059 933.98456 4278190080
114.58466 22.931595 189.05592 4278190080
644.95825 992.83527 384.89822 4278190080
294.21637 504.91409 640.73029 4278190080
696.64954 197.9268 471.85764 4278190080
806.24609 750.90326 542.41559 4278190080
476.46417 774.99768 1016.4213 4278190080
985.02399 1012.9335 803.02551 4278190080
882.17969 622.43353 157.44531 4278190080
392.68036 43.74501 474.84741 4278190080
752.84033 948.25134 113.45328 4278190080
662.82489 38.836002 136.38487 4278190080
851.8808 683.79425 105.22015 4278190080
212.77902 978.01062 610.13422 4278190080
853.50928 650.66022 808.06104 4278190080
301.36691 432.90631 534.96429 4278190080
843.78247 909.37048 285.96194 4278190080
836.20374 870.39447 274.89548 4278190080
615.22925 728.57416 897.32898 4278190080
772.67456 97.254494 941.07404 4278190080
223.52199 850.09479 865.32538 4278190080
336.97528 488.91968 904.16138 4278190080
473.36014 316.80048 563.95563 4278190080
578.58032 529.57953 517.96631 4278190080
164.71454 359.08878 144.62648 4278190080
972.77557 660.45569 577.53278 4278190080
483.73987 480.23819 462.90329 4278190080
769.70178 292.44193 309.29776 4278190080
20.597281 907.6712 13.871899 4278190080
917.92627 656.34576 111.1264 4278190080
835.00031 879.86774 961.22119 4278190080
676.32568 192.84302 426.14087 4278190080
556.487 666.20319 742.94135 4278190080
96.442657 220.78346 248.52084 4278190080
614.40894 385.49802 607.60962 4278190080
759.0354 334.27359 244.06534 4278190080
312.56821 818.01349 724.30353 4278190080
775.4715 563.71527 1016.7454 4278190080
60.769257 584.31256 900.41663 4278190080
74.641159 478.23886 532.76239 4278190080
185.76755 289.23917 388.63013 4278190080
122.98875 965.56482 581.47314 4278190080
549.12964 498.05182 223.6763 4278190080
268.07098 594.49451 444.45978 4278190080
516.59186 184.90343 829.95776 4278190080
100.20146 943.93884 140.23138 4278190080
344.26678 232.50706 958.24487 4278190080
44.570316 1007.9786 497.96014 4278190080
37.315746 44.747818 58.272728 4278190080
937.73236 119.38898 536.5116 4278190080
446.49472 305.15652 825.75073 4278190080
835.12482 428.14529 767.31555 4278190080
392.59799 977.2749 241.36739 4278190080
616.27429 221.34589 835.86188 4278190080
36.734058 737.93774 1020.7653 4278190080
866.69183 838.13916 940.70416 4278190080
1006.9232 158.40598 149.2112 4278190080
941.16809 202.97629 133.18976 4278190080
415.12823 240.29204 177.93758 4278190080
473.40097 154.02438 297.32654 4278190080
1009.9125 600.5191 602.48309 4278190080
811.66327 411.64395 6.6283565 4278190080
554.97882 804.24194 983.90326 4278190080
796.34625 396.51624 181.24916 4278190080
608.20813 433.25027 919.18689 4278190080
604.97339 275.94211 733.32605 4278190080
521.67755 258.86533 891.73206 4278190080
670.88873 176.03343 70.708321 4278190080
804.07849 591.16168 311.00037 4278190080
982.01605 40.562645 465.02475 4278190080
255.34262 26.475203 41.54385 4278190080
857.82568 838.13849 453.18781 4278190080
864.45404 369.11734 233.42973 4278190080
824.3573 141.46358 629.94598 4278190080
1005.6065 749.67169 39.196243 4278190080
900.79333 330.64508 315.13837 4278190080
610.11938 852.32263 574.00372 4278190080
477.85144 499.21136 750.03711 4278190080
548.55975 279.28986 317.19879 4278190080
859.56012 237.30592 357.76144 4278190080
300.58484 492.64853 384.23663 4278190080
342.12869 326.47424 198.37515 4278190080
795.31647 166.9283 567.49249 4278190080
4.7462335 991.28564 708.95605 4278190080
634.6922 972.89209 434.62775 4278190080
673.88843 849.68542 765.27283 4278190080
989.02679 435.80484 593.59546 4278190080
539.03052 913.65631 68.806801 4278190080
265.06763 438.21603 348.09665 4278190080
582.26642 273.77612 585.40259 4278190080
940.02789 574.36096 54.051109 4278190080
300.26453 916.48969 380.52536 4278190080
498.63965 687.80615 547.45367 4278190080
42.132156 692.55243 514.73926 4278190080
751.08826 303.2446 463.63138 4278190080
161.71599 977.13306 289.31683 4278190080
926.98883 942.15985 725.1217 4278190080
496.58426 457.19034 614.77795 4278190080
565.39105 722.25793 28.994001 4278190080
913.48773 280.52438 302.77014 4278190080
474.89029 196.55226 877.1311 4278190080
528.94141 496.81677 769.62079 4278190080
909.46674 995.45642 433.42694 4278190080
432.92041 13.588589 101.97935 4278190080
947.65967 764.67682 405.22394 4278190080
387.29105 926.39282 358.35696 4278190080
676.60791 829.38165 276.51682 4278190080
377.72958 301.96591 733.70715 4278190080
992.50757 867.35699 431.96509 4278190080
1021.5015 756.84467 712.4895 4278190080
300.27167 207.73497 909.04175 4278190080
153.40279 736.67639 381.85852 4278190080
923.02356 622.14313 353.31494 4278190080
332.45053 31.063528 366.90353 4278190080
434.42987 978.72321 107.58036 4278190080
839.65381 342.01425 9.9731693 4278190080
174.0108 1018.6221 839.3548 4278190080
450.52762 372.35172 117.3207 4278190080
160.23476 340.85925 984.67767 4278190080
592.19983 338.36081 717.52234 4278190080
280.68933 638.63245 925.25732 4278190080
165.73108 792.03528 637.93372 4278190080
547.5896 691.05884 236.07684 4278190080
900.90454 1023.5093 267.14035 4278190080
243.80809 433.93924 221.86357 4278190080
351.38846 249.59306 563.87781 4278190080
361.36163 423.60388 558.5 4278190080
176.71642 874.13147 930.85168 4278190080
294.03711 10.366234 247.71097 4278190080
254.7148 602.5661 586.07178 4278190080
972.23718 883.25543 200.70424 4278190080
873.49451 24.986496 992.7395 4278190080
487.42819 572.57611 659.79834 4278190080
723.50507 449.48065 659.30768 4278190080
990.64539 693.28876 69.246948 4278190080
188.50899 20.677195 318.84 4278190080
752.38684 382.03882 742.44391 4278190080
286.88681 558.75525 592.57538 4278190080
193.73851 852.79236 602.94159 4278190080
441.44946 83.507156 181.50768 4278190080
3.5212369 31.744312 40.7631 4278190080
204.22548 905.23883 65.749596 4278190080
172.96498 368.66702 638.32568 4278190080
832.76331 68.172058 63.806335 4278190080
468.07101 34.817467 757.09509 4278190080
537.31799 223.32645 777.77228 4278190080
856.15796 975.71326 135.8111 4278190080
574.60187 238.60007 694.56635 4278190080
143.17723 432.33856 523.3587 4278190080
746.11884 873.78802 606.86584 4278190080
927.62653 877.30927 638.61017 4278190080
968.38959 57.534763 519.849 4278190080
10.139196 230.49974 888.51599 4278190080
648.4649 39.263065 956.68805 4278190080
712.27124 507.33411 991.50549 4278190080
445.3663 20.652065 190.83195 4278190080
199.13857 876.81006 142.54523 4278190080
334.94965 427.4119 381.14529 4278190080
5.5159931 570.58911 813.48389 4278190080
528.87469 292.70795 663.27191 4278190080
111.74055 196.33446 516.58118 4278190080
750.35071 140.72406 574.11597 4278190080
246.19968 150.86327 804.61572 4278190080
110.71567 799.32812 843.87878 4278190080
43.403717 487.59937 327.21286 4278190080
10.909227 932.96564 347.86493 4278190080
201.74118 108.10423 200.67497 4278190080
344.28641 443.05389 628.08685 4278190080
725.4317 448.56989 174.67601 4278190080
514.91553 977.44458 467.38397 4278190080
154.18745 65.18512 663.71844 4278190080
670.76868 815.53583 804.4425 4278190080
220.88461 37.735519 955.30579 4278190080
1.5003099 148.45119 730.63391 4278190080
845.37909 191.8549 194.23328 4278190080
148.59193 202.76413 103.19894 4278190080
496.45685 404.50531 211.30318 4278190080
697.13184 748.79175 654.35706 4278190080
301.21872 450.22342 78.926964 4278190080
475.89471 965.13898 32.371544 4278190080
943.27869 95.326416 97.556664 4278190080
582.99713 766.09509 913.09253 4278190080
363.43964 986.97968 950.828 4278190080
294.74539 988.47998 75.279205 4278190080
1.3793149 809.85907 267.13412 4278190080
195.61259 958.45099 469.89825 4278190080
298.81152 430.90784 874.40356 4278190080
510.11472 104.03968 599.19531 4278190080
140.47179 405.25839 25.418695 4278190080
219.39876 881.15308 990.55768 4278190080
251.77029 800.43182 61.884068 4278190080
349.32697 359.42896 827.97913 4278190080
238.41946 722.86859 790.9588 4278190080
165.24748 1017.614 755.43878 4278190080
240.52669 1018.9933 541.29785 4278190080
507.6608 190.6059 475.74887 4278190080
977.55908 489.41742 906.65674 4278190080
827.96265 999.53217 1010.6964 4278190080
403.1579 116.00394 391.95477 4278190080
428.5766 335.40268 249.10788 4278190080
395.13425 587.17297 25.539684 4278190080
457.01831 936.49994 384.96863 4278190080
260.99747 150.9194 83.837204 4278190080
27.956278 316.16687 77.451195 4278190080
783.39508 556.69354 72.444496 4278190080
300.69296 40.354378 263.05038 4278190080
776.44183 1017.9135 752.46783 4278190080
659.09851 821.87604 727.99994 4278190080
645.79492 201.03397 844.00391 4278190080
13.749704 629.6106 155.40659 4278190080
262.85757 0.74482441 742.57959 4278190080
288.39728 457.76315 655.07953 4278190080
673.36591 718.76062 805.9989 4278190080
757.20312 746.71692 98.16581 4278190080
834.6543 506.11197 654.85938 4278190080
907.09882 806.80493 695.21375 4278190080
146.14917 559.24677 689.1272 4278190080
898.617 194.34528 487.00323 4278190080
602.61694 840.1402 688.03723 4278190080
422.62088 853.88989 293.64777 4278190080
578.02747 92.747498 294.39261 4278190080
296.60703 381.14478 752.15576 4278190080
951.68658 30.510658 446.91635 4278190080
733.68549 787.71375 169.63326 4278190080
831.85132 598.36804 675.74524 4278190080
462.71066 481.46683 458.55014 4278190080
133.92444 627.61603 1017.7969 4278190080
823.05164 502.233 188.14217 4278190080
286.05487 80.849976 4.2823739 4278190080
974.0921 503.47086 858.1723 4278190080
243.73985 57.498306 950.9198 4278190080
538.13245 354.10535 308.06454 4278190080
266.28821 281.7919 338.5752 4278190080
713.20459 1015.4774 102.28896 4278190080
882.83783 823.32867 700.65698 4278190080
534.58307 262.03937 158.12384 4278190080
993.13318 395.96381 785.73987 4278190080
986.93011 195.01543 263.97287 4278190080
151.07227 481.07028 344.82285 4278190080
155.35464 431.16238 848.2937 4278190080
1013.5269 674.90222 905.79199 4278190080
940.44672 189.03468 235.89734 4278190080
224.51125 455.32288 517.68927 4278190080
563.08643 144.52745 509.16663 4278190080
665.37537 3.3652773 308.4953 4278190080
342.03241 537.9483 570.53467 4278190080
500.15625 507.08151 966.49847 4278190080
261.89612 470.01163 137.51389 4278190080
525.86896 621.08386 618.58417 4278190080
870.69183 776.43854 25.746553 4278190080
694.98553 765.96545 700.6488 4278190080
576.77753 682.41217 889.68347 4278190080
812.67487 906.9234 321.00635 4278190080
306.36414 446.00983 465.53381 4278190080
815.53076 87.385231 468.89908 4278190080
100.02608 429.41763 1006.8474 4278190080
670.56073 929.57385 489.92896 4278190080
613.0592 167.46999 959.94055 4278190080
750.57312 693.33899 557.02448 4278190080
345.15729 540.03082 309.46298 4278190080
370.90384 211.01636 51.428444 4278190080
47.552612 787.79388 733.84058 4278190080
937.23608 576.46875 616.76398 4278190080
234.24245 882.83289 38.773827 4278190080
699.77625 674.36365 126.15906 4278190080
144.67534 774.38977 555.57666 4278190080
127.52277 420.9505 461.15057 4278190080
617.45172 10.009704 628.62054 4278190080
553.39227 760.58282 297.95953 4278190080
86.416733 81.740074 837.99036 4278190080
395.87973 452.64392 25.006706 4278190080
447.30817 500.19653 812.8006 4278190080
157.14877 413.43262 365.26938 4278190080
773.91278 647.67505 224.10226 4278190080
812.68658 323.45129 898.46594 4278190080
938.84564 468.12665 648.85565 4278190080
470.42233 595.64941 45.806171 4278190080
931.57288 189.10112 55.815876 4278190080
536.19342 742.49341 816.39868 4278190080
834.15302 828.9101 898.13873 4278190080
648.14337 200.78984 326.78265 4278190080
673.15002 648.09802 826.97919 4278190080
461.95065 805.24677 216.41179 4278190080
827.22003 555.15955 864.08685 4278190080
27.322281 343.84613 163.53813 4278190080
925.78821 258.69177 631.66479 4278190080
550.64392 729.11407 203.31418 4278190080
596.45007 636.68695 392.41528 4278190080
652.26593 148.88043 110.90868 4278190080
444.66461 983.03339 939.81879 4278190080
318.80338 607.17676 116.60863 4278190080
645.58606 256.32681 764.70667 4278190080
448.56522 718.27747 545.95343 4278190080
664.97699 521.49744 77.112953 4278190080
505.06381 548.81976 420.95908 4278190080
668.60193 450.60794 679.65082 4278190080
276.26672 1001.2518 384.76492 4278190080
479.5809 573.7019 1021.4519 4278190080
871.99622 201.96786 146.33232 4278190080
982.90485 646.63245 105.36573 4278190080
898.72363 965.43585 712.54248 4278190080
1015.3323 587.02185 968.86926 4278190080
756.03894 11.587092 663.14673 4278190080
277.99237 676.56409 160.6442 4278190080
355.10532 157.62791 709.46393 4278190080
776.06439 826.22986 136.07188 4278190080
431.71521 78.496597 113.32373 4278190080
816.48016 558.07751 687.02563 4278190080
813.93201 406.07367 888.99353 4278190080
960.26434 364.97855 511.62598 4278190080
41.630077 239.70221 453.06183 4278190080
754.17255 231.0345 16.083712 4278190080
699.04187 987.07343 27.670803 4278190080
338.18857 241.06583 704.23492 4278190080
498.83276 596.17114 861.86279 4278190080
184.29671 348.23553 664.09271 4278190080
320.36859 779.95074 742.58929 4278190080
433.69232 572.43091 276.66678 4278190080
96.717964 362.36295 682.74048 4278190080
985.71149 298.62729 23.718998 4278190080
473.33746 340.25735 263.4212 4278190080
926.39929 70.429916 494.45572 4278190080
942.48303 769.47174 457.52917 4278190080
970.15381 83.660347 698.59497 4278190080
650.38867 582.4931 270.76611 4278190080
488.25153 766.78979 619.00165 4278190080
128.34419 63.158401 374.95242 4278190080
870.93347 496.85071 947.3833 4278190080
123.60024 593.56866 285.74625 4278190080
806.3407 555.28015 584.37354 4278190080
830.05969 4.6176209 924.63086 4278190080
69.480896 931.01691 995.06079 4278190080
563.93658 849.49994 740.53253 4278190080
1021.4658 795.65375 824.19287 4278190080
696.06073 422.04242 382.686 4278190080
966.8269 910.29395 125.47584 4278190080
561.82855 14.638138 188.63423 4278190080
936.78094 885.57159 685.48499 4278190080
860.16425 1009.1719 255.05365 4278190080
121.91048 791.51257 810.3338 4278190080
706.284 597.57227 814.95142 4278190080
606.91486 667.05316 721.96832 4278190080
577.97565 206.98975 547.46826 4278190080
294.50824 204.45551 319.12198 4278190080
94.701126 900.5163 741.16443 4278190080
477.38715 843.34314 627.45837 4278190080
602.86298 381.17166 642.0965 4278190080
791.49719 293.95261 503.66809 4278190080
452.98218 130.11687 488.83994 4278190080
708.03583 252.02734 256.35248 4278190080
494.36963 958.31134 853.92474 4278190080
285.32104 541.2262 496.97787 4278190080
1007.2894 95.201889 703.96759 4278190080
530.75763 389.71011 908.4231 4278190080
849.87964 484.41125 784.93939 4278190080
567.04401 961.7984 604.28253 4278190080
170.50237 540.66138 985.45422 4278190080
812.59888 308.15857 255.40681 4278190080
292.26694 761.14075 385.52368 4278190080
781.10687 445.17657 637.55103 4278190080
13.459385 939.5462 571.86237 4278190080
867.38409 200.86725 89.088593 4278190080
340.36197 184.15663 184.29048 4278190080
20.329575 714.91431 574.00061 4278190080
928.75269 540.79388 34.411839 4278190080
689.69208 83.837929 996.21021 4278190080
269.97458 254.3403 512.87158 4278190080
231.42879 42.939148 821.03015 4278190080
486.8356 335.20609 558.17096 4278190080
872.35925 92.312988 1003.3475 4278190080
485.91031 105.77237 918.89368 4278190080
33.772671 973.15649 95.760948 4278190080
122.86126 289.51846 279.91757 4278190080
307.15173 309.84802 994.83185 4278190080
881.15234 214.60072 511.62576 4278190080
915.56415 904.29279 595.46368 4278190080
887.77441 150.26738 849.80396 4278190080
376.646 381.69617 892.7431 4278190080
173.67618 868.53174 203.94923 4278190080
731.84711 716.89105 296.26221 4278190080
711.19464 178.80135 402.03458 4278190080
606.08832 212.57402 351.19107 4278190080
701.8493 335.43527 640.70953 4278190080
981.76685 642.58704 950.55756 4278190080
952.59875 499.73935 141.15829 4278190080
440.22449 391.30353 21.451077 4278190080
11.688175 255.07793 171.71844 4278190080
861.49219 631.72394 553.41461 4278190080
730.23529 805.40009 397.94638 4278190080
934.18451 513.24719 90.837425 4278190080
206.44673 200.44185 269.63876 4278190080
608.48132 806.53015 482.2128 4278190080
959.67242 484.37946 817.64807 4278190080
576.38196 442.14633 436.23511 4278190080
502.93948 370.74506 935.97443 4278190080
644.09778 810.96954 303.27798 4278190080
665.54889 822.65771 558.3559 4278190080
837.26733 660.1499 166.07985 4278190080
366.68192 366.38516 971.47998 4278190080
764.6283 276.56967 460.72717 4278190080
855.4657 483.01642 661.16901 4278190080
101.1045 67.497742 443.69919 4278190080
583.31732 3.1701326 928.07867 4278190080
376.96536 579.55206 346.22498 4278190080
813.20044 58.491554 716.97003 4278190080
725.17493 702.58936 503.93958 4278190080
4.452899 344.13821 302.59726 4278190080
562.80884 157.40552 962.74713 4278190080
728.88867 524.08746 305.13232 4278190080
676.36859 264.71576 581.70197 4278190080
113.09579 96.181488 40.718407 4278190080
774.26483 197.28598 108.21615 4278190080
193.964 780.60327 111.38628 4278190080
98.042664 133.56865 690.93835 4278190080
444.26764 946.7691 749.42987 4278190080
137.23766 647.94403 428.01923 4278190080
641.17719 652.39691 772.15747 4278190080
943.77448 191.20573 929.56299 4278190080
882.52161 920.09442 429.65042 4278190080
163.65395 572.46301 694.36615 4278190080
745.35596 685.55884 790.54767 4278190080
786.07434 435.82364 987.83362 4278190080
894.29047 629.78766 744.43695 4278190080
1005.6768 727.83032 878.00555 4278190080
672.61511 148.09793 800.77466 4278190080
398.04501 285.3356 424.71869 4278190080
826.06427 926.51282 53.115623 4278190080
574.22168 846.28729 244.32137 4278190080
479.78467 704.80896 140.41577 4278190080
909.43506 868.46289 712.87878 4278190080
579.80127 589.81879 374.43759 4278190080
346.34894 351.89316 810.26123 4278190080
310.18256 222.18365 416.04886 4278190080
30.619497 203.86043 119.87917 4278190080
908.62506 876.47552 267.97711 4278190080
685.39978 250.52055 553.31268 4278190080
86.118454 52.584801 455.8255 4278190080
139.23409 626.80652 278.11279 4278190080
383.55545 82.591164 982.92175 4278190080
523.97119 992.02625 827.38458 4278190080
212.84999 547.82751 393.20343 4278190080
587.2876 894.17645 745.09656 4278190080
373.54883 180.35899 967.28021 4278190080
789.59772 210.9785 147.14066 4278190080
909.47687 95.603569 1023.6162 4278190080
153.45396 781.0033 250.13675 4278190080
706.76666 867.12177 302.72156 4278190080
138.59218 1006.3558 929.52808 4278190080
416.70499 365.91129 1012.1192 4278190080
375.62671 889.88251 980.14545 4278190080
179.01131 78.732483 503.97296 4278190080
572.21472 666.02008 374.14938 4278190080
293.31131 15.56889 554.50836 4278190080
236.59155 805.16656 765.48688 4278190080
383.73221 690.64343 861.09045 4278190080
383.34842 844.09741 618.09375 4278190080
633.48517 526.86407 461.21555 4278190080
936.20673 665.45624 443.57138 4278190080
841.73474 58.161221 809.48267 4278190080
829.854 433.78793 675.36517 4278190080
785.99945 612.79926 754.09766 4278190080
265.97238 161.01396 396.11774 4278190080
640.12177 454.32529 411.68661 4278190080
170.63017 690.91681 192.8532 4278190080
936.11707 50.649044 883.49664 4278190080
773.20752 433.99747 703.59406 4278190080
367.3013 43.482632 206.45811 4278190080
828.51685 979.68933 871.91437 4278190080
248.08824 797.42413 930.07556 4278190080
33.570919 603.27808 339.86353 4278190080
708.9361 365.27753 952.66272 4278190080
439.03375 631.24994 89.67672 4278190080
835.15149 247.37172 544.00201 4278190080
222.8381 418.00189 210.91882 4278190080
415.69131 330.11896 261.56787 4278190080
275.18793 79.326492 695.56531 4278190080
978.78198 446.62778 739.04797 4278190080
161.24011 251.14462 694.7373 4278190080
9.1544743 499.23288 468.16144 4278190080
939.23004 532.80377 47.439545 4278190080
255.09358 217.73988 412.71707 4278190080
183.75633 656.77362 19.967012 4278190080
273.43304 467.92511 267.33875 4278190080
817.43506 690.76324 685.34064 4278190080
4.3538713 82.454536 1015.4596 4278190080
265.92175 357.64249 70.786079 4278190080
961.48706 312.42447 517.41388 4278190080
676.53503 473.66455 768.55847 4278190080
347.27237 482.81903 243.79137 4278190080
815.43384 398.0491 776.59515 4278190080
862.87335 653.1427 994.33502 4278190080
251.59044 836.89899 627.10864 4278190080
271.55743 86.332047 71.033798 4278190080
538.89618 903.76709 761.797 4278190080
200.2368 908.12097 844.25159 4278190080
191.6964 150.04271 177.89403 4278190080
262.48248 87.529793 490.31848 4278190080
779.89636 764.06482 963.98303 4278190080
524.45483 87.337204 422.80209 4278190080
768.24622 902.771 820.8512 4278190080
520.84137 741.64435 449.99387 4278190080
491.17639 993.2348 262.89288 4278190080
94.285065 240.79225 349.22491 4278190080
165.31886 779.68842 228.99202 4278190080
927.11591 979.92523 113.11298 4278190080
747.36743 147.62164 263.1557 4278190080
925.26147 410.10413 350.68549 4278190080
391.57996 166.00047 90.75032 4278190080
331.56302 690.45532 178.08752 4278190080
754.36511 434.70151 56.858543 4278190080
551.21631 955.54291 798.50293 4278190080
1001.2101 422.71927 767.73773 4278190080
240.10303 517.00433 1008.53 4278190080
589.32794 682.32318 764.21838 4278190080
818.31995 585.43909 720.14368 4278190080
931.43292 308.80652 867.76526 4278190080
170.58864 210.06799 253.8694 4278190080
521.27411 601.64795 419.86987 4278190080
612.02441 933.211 86.325188 4278190080
790.11194 663.57611 521.02673 4278190080
846.97052 190.79237 452.56958 4278190080
621.47345 168.00253 875.28888 4278190080
365.21115 408.10556 368.29318 4278190080
349.74112 997.43353 26.616386 4278190080
89.959526 791.75348 612.05548 4278190080
810.10315 699.1864 920.862 4278190080
653.86847 869.77509 106.92998 4278190080
907.73785 367.04919 708.57794 4278190080
303.60773 979.07361 617.78894 4278190080
389.93292 745.18561 257.36499 4278190080
910.95966 568.15613 448.15738 4278190080
339.52924 165.62953 616.15991 4278190080
190.81808 530.8407 0.2654624 4278190080
559.11127 880.58179 997.69897 4278190080
585.72766 970.54132 765.45245 4278190080
173.78313 756.64447 440.63889 4278190080
70.645111 386.51294 286.41394 4278190080
177.57509 270.25079 653.46313 4278190080
886.15302 573.85852 608.53674 4278190080
479.94196 963.79144 329.72235 4278190080
737.30695 850.7511 897.87848 4278190080
161.46434 166.28032 39.507984 4278190080
777.62427 357.09839 570.34863 4278190080
777.88971 916.20966 426.93045 4278190080
751.58868 477.93735 373.47177 4278190080
493.04114 651.72046 106.11625 4278190080
933.67999 722.3656 492.62918 4278190080
196.09395 899.94067 762.88 4278190080
849.55707 762.09369 312.73853 4278190080
434.09384 218.03564 252.53001 4278190080
763.81616 955.34259 79.281105 4278190080
637.69464 92.806946 245.56143 4278190080
677.20264 870.43121 602.65985 4278190080
223.55128 624.32086 494.86951 4278190080
650.48175 351.90958 972.80682 4278190080
1023.9535 844.95068 600.52728 4278190080
106.06975 754.63068 298.89288 4278190080
598.69891 950.72467 174.83354 4278190080
337.57895 776.28174 936.92725 4278190080
650.3175 186.37556 130.96289 4278190080
902.84747 950.19177 62.305496 4278190080
982.1286 563.88641 155.11244 4278190080
203.69002 217.08902 1.5436311 4278190080
806.34985 440.64029 625.8645 4278190080
277.21936 67.122025 977.77411 4278190080
226.02621 67.075523 798.72479 4278190080
