# .PCD v0.7 - Point Cloud Data file format
VERSION 0.7
FIELDS x y z rgb
SIZE 4 4 4 4
TYPE F F F U
COUNT 1 1 1 1
WIDTH 1175
HEIGHT 1
VIEWPOINT 0 0 0 1 0 0 0
POINTS 1175
DATA ascii
454.29013 513.37659 933.93542 4278190080
91.815971 640.99634 576.37646 4278190080
48.280922 547.04211 393.89676 4278190080
556.6217 777.4917 376.35657 4278190080
298.84155 867.85468 785.67206 4278190080
296.1376 467.5813 845.72388 4278190080
191.14624 652.15222 858.6427 4278190080
772.00958 1016.933 543.21051 4278190080
135.57793 461.88791 65.264755 4278190080
991.00342 864.64233 488.6315 4278190080
645.83319 294.93246 1002.0081 4278190080
555.76862 386.74844 619.00439 4278190080
108.14506 435.02936 142.04654 4278190080
502.04181 991.65106 919.53821 4278190080
878.39838 266.49261 763.39294 4278190080
640.07043 562.63019 206.97421 4278190080
461.79434 753.77643 859.12646 4278190080
296.43704 501.78607 852.05951 4278190080
839.64758 637.36401 289.94745 4278190080
904.91229 604.36743 130.58978 4278190080
369.54379 226.20065 425.52225 4278190080
347.55188 781.96924 812.27069 4278190080
966.55627 890.11432 223.30003 4278190080
84.602821 368.15613 190.95108 4278190080
1004.1411 222.55452 457.4437 4278190080
743.534 862.625 1020.0739 4278190080
950.50818 300.41931 749.8504 4278190080
785.63464 596.85638 227.63644 4278190080
613.69415 412.50394 865.00043 4278190080
903.6416 293.41623 445.36786 4278190080
10.231386 662.96002 671.56848 4278190080
435.75363 1010.5119 429.53778 4278190080
224.02429 953.06818 295.6521 4278190080
447.32434 13.671019 663.80823 4278190080
638.27539 1017.8121 886.36279 4278190080
71.719109 737.34607 724.98773 4278190080
67.79303 663.85425 1.4070525 4278190080
817.64343 425.48886 598.26343 4278190080
21.279842 15.183023 1010.7673 4278190080
886.28027 918.82465 280.18359 4278190080
307.64813 929.05603 943.14362 4278190080
979.21661 340.80963 929.65558 4278190080
384.75443 564.83392 858.72375 4278190080
680.40649 1012.1583 872.39478 4278190080
320.21475 626.43365 866.20685 4278190080
182.57753 698.15277 579.55292 4278190080
907.56525 765.9458 219.40712 4278190080
908.97229 559.58923 644.896 4278190080
483.23575 580.86908 660.07898 4278190080
470.00308 443.14932 554.90363 4278190080
750.18671 750.79749 459.95966 4278190080
669.33032 706.0141 800.76929 4278190080
574.9859 66.768524 341.60324 4278190080
409.70963 747.17505 329.76151 4278190080
258.1044 43.389801 956.19519 4278190080
100.31126 225.96733 630.34796 4278190080
679.86414 109.53259 372.29376 4278190080
899.27124 1018.5049 931.883 4278190080
520.16724 477.74063 488.75208 4278190080
156.24625 947.74371 931.90137 4278190080
711.1499 673.93042 658.69885 4278190080
147.10953 319.26071 340.71298 4278190080
947.87878 894.24658 407.48151 4278190080
265.48203 279.95621 130.65654 4278190080
595.24353 538.06061 174.04634 4278190080
527.43872 638.37189 400.01367 4278190080
133.78665 294.23602 509.54626 4278190080
506.08041 169.50729 504.05115 4278190080
413.96341 689.67456 981.79175 4278190080
902.71552 845.92078 905.53546 4278190080
810.61688 533.07068 555.46588 4278190080
445.31573 680.18018 874.72662 4278190080
786.02875 604.05902 744.97321 4278190080
169.51022 869.54102 0.9294157 4278190080
300.16675 440.78458 538.99005 4278190080
474.2131 968.22327 153.36192 4278190080
874.22675 78.009911 447.59796 4278190080
359.77301 584.09033 617.10522 4278190080
863.82416 998.05377 282.77979 4278190080
821.61591 876.76923 104.70058 4278190080
703.15143 663.38611 637.77124 4278190080
234.61731 84.701881 293.95142 4278190080
85.343918 870.73059 898.01044 4278190080
830.31714 16.240816 743.55145 4278190080
831.24652 316.40756 160.33601 4278190080
346.23657 790.62067 104.55927 4278190080
499.59848 640.84741 182.56918 4278190080
947.19647 1000.6204 766.65955 4278190080
540.3017 840.44458 740.71332 4278190080
823.08148 638.06055 593.48254 4278190080
927.78204 317.21194 232.86868 4278190080
541.55328 551.82928 317.57056 4278190080
835.5047 637.17316 164.30116 4278190080
709.51514 443.4903 180.54198 4278190080
429.06659 250.73682 496.94955 4278190080
589.40259 596.97339 263.57022 4278190080
693.96185 72.571877 904.4176 4278190080
876.53107 1019.7683 881.03809 4278190080
619.19061 536.07001 697.48267 4278190080
335.90387 335.15149 311.54318 4278190080
929.38641 238.93355 628.75513 4278190080
138.2551 780.48682 156.58438 4278190080
455.82565 591.99152 793.75757 4278190080
620.12683 277.50668 213.24783 4278190080
800.66876 706.57324 463.98465 4278190080
273.61835 271.97586 36.958035 4278190080
537.18854 965.93774 109.52991 4278190080
417.60617 818.46881 105.29823 4278190080
274.64423 413.65939 641.36823 4278190080
972.12689 749.56329 976.51971 4278190080
259.67007 654.94971 191.45326 4278190080
888.42523 793.20477 971.94012 4278190080
21.00959 225.03046 539.93164 4278190080
814.76715 845.15729 817.43835 4278190080
4.014987 621.82605 500.0116 4278190080
467.99963 895.4444 771.98743 4278190080
504.95767 408.63293 713.92517 4278190080
614.48761 826.23914 508.39401 4278190080
719.78583 76.883339 922.05341 4278190080
337.15405 25.010237 647.61664 4278190080
289.67377 284.68033 278.56638 4278190080
481.12704 149.10551 47.771168 4278190080
429.06714 170.11511 272.80164 4278190080
968.99878 984.88226 93.958908 4278190080
762.43713 988.89722 715.78497 4278190080
238.4487 432.89688 587.22937 4278190080
1010.4362 937.85455 995.8623 4278190080
700.36139 528.34216 798.10144 4278190080
184.75536 224.12796 874.98474 4278190080
82.808746 561.28198 899.995 4278190080
730.42542 850.95581 160.67532 4278190080
1008.9918 308.08282 309.78085 4278190080
32.762951 737.14996 479.89597 4278190080
305.56458 682.14874 440.7782 4278190080
399.5235 420.58588 405.67545 4278190080
91.308472 659.03461 838.57233 4278190080
678.53784 645.47076 752.42688 4278190080
650.40015 321.83212 256.76904 4278190080
424.50159 506.58746 480.897 4278190080
275.48636 589.39624 18.179016 4278190080
151.48135 295.82162 869.13483 4278190080
312.15668 280.81342 153.21764 4278190080
621.9375 313.57635 890.36761 4278190080
77.833466 619.14093 548.51636 4278190080
518.61169 1018.6644 969.10223 4278190080
924.28711 85.972908 604.13684 4278190080
738.8595 764.51074 225.60757 4278190080
467.28638 390.91092 547.4397 4278190080
724.05542 815.41254 30.027155 4278190080
180.95244 66.898857 619.4234 4278190080
199.13145 218.38022 915.245 4278190080
44.266251 530.53687 172.05843 4278190080
197.48389 128.4744 485.6348 4278190080
63.851482 206.30788 80.775742 4278190080
612.36786 724.91956 75.440186 4278190080
557.47009 625.20667 161.4131 4278190080
137.60692 340.06616 925.92383 4278190080
363.21448 807.35254 292.83478 4278190080
910.65417 507.40796 84.247284 4278190080
940.68134 688.36041 151.14615 4278190080
536.10468 887.49182 369.52637 4278190080
427.3497 931.75806 900.06323 4278190080
599.40814 105.24197 4.5376496 4278190080
61.042938 169.09344 210.84552 4278190080
141.81868 781.4613 935.76508 4278190080
217.25887 314.9314 536.97174 4278190080
378.67197 452.5383 877.0379 4278190080
280.59583 815.75281 660.39044 4278190080
573.4306 702.40698 143.79839 4278190080
657.67786 619.08832 832.15875 4278190080
808.82404 131.19299 695.65063 4278190080
154.35037 558.54272 603.40869 4278190080
30.41362 133.95085 708.65063 4278190080
34.951271 194.99379 877.74408 4278190080
245.79678 336.81247 635.20538 4278190080
157.56186 554.07135 950.13678 4278190080
694.53363 932.74329 378.67508 4278190080
547.57153 189.33913 170.42786 4278190080
183.96194 762.76971 872.83484 4278190080
327.76031 396.4476 467.92313 4278190080
135.9191 181.27161 599.11609 4278190080
831.5697 335.62198 133.65881 4278190080
410.97839 366.03561 267.60968 4278190080
95.629051 400.98688 462.60345 4278190080
973.37317 646.78369 799.41595 4278190080
584.57855 804.34552 329.48727 4278190080
510.71533 474.87912 238.23058 4278190080
889.39038 1022.4506 427.5697 4278190080
35.818264 182.41258 166.3394 4278190080
908.65308 510.17291 562.78699 4278190080
352.5762 646.09198 744.05859 4278190080
951.69232 453.66171 55.68058 4278190080
61.351131 864.64008 421.71619 4278190080
328.96082 960.26917 822.70306 4278190080
791.56427 909.64227 445.48672 4278190080
566.98022 470.22086 225.83224 4278190080
896.46747 980.93616 700.71136 4278190080
110.69804 846.3266 699.16199 4278190080
538.2677 882.14484 881.57458 4278190080
704.60712 766.79791 367.7475 4278190080
243.39412 95.374138 1013.8395 4278190080
987.4527 23.066448 443.50119 4278190080
19.133305 84.41758 284.14127 4278190080
440.84949 413.37839 220.41043 4278190080
239.55255 180.94264 106.05273 4278190080
685.03925 747.92285 576.27356 4278190080
910.87152 620.39032 533.20978 4278190080
587.58289 731.08832 355.53635 4278190080
262.7449 245.35606 213.6812 4278190080
120.31949 949.9632 980.47913 4278190080
488.06699 169.35733 51.853271 4278190080
477.90646 132.81004 74.919724 4278190080
921.40765 151.94336 159.3373 4278190080
181.54892 592.79285 572.7157 4278190080
401.95935 832.3454 753.65833 4278190080
508.01208 493.38467 477.58118 4278190080
60.285656 380.2562 73.971474 4278190080
593.49542 967.83905 805.05981 4278190080
949.03174 206.58398 26.415888 4278190080
138.71295 326.90347 976.37909 4278190080
95.192093 814.97046 121.73642 4278190080
147.04536 268.87689 254.54646 4278190080
221.96509 166.28455 406.48981 4278190080
381.30237 347.83347 999.28265 4278190080
954.01807 749.79285 807.62805 4278190080
683.67639 233.8049 277.01273 4278190080
137.25755 294.09055 657.26892 4278190080
211.22902 887.586 601.10797 4278190080
1016.2888 812.61774 807.69196 4278190080
18.704729 951.33069 110.59543 4278190080
995.0838 22.522779 925.56586 4278190080
92.820236 169.56815 170.44276 4278190080
347.3667 391.53323 336.72733 4278190080
753.85651 772.83563 684.56079 4278190080
729.13916 702.8537 410.35361 4278190080
512.76727 362.53006 644.15851 4278190080
789.77997 499.7876 938.24908 4278190080
423.04889 711.01666 801.83508 4278190080
0.15686846 703.30548 590.45282 4278190080
807.84882 722.01019 517.78351 4278190080
918.44427 693.09399 540.30627 4278190080
820.01013 785.91425 709.87439 4278190080
990.45288 109.28096 77.407631 4278190080
303.18024 863.13745 850.24323 4278190080
987.74103 568.27667 529.09692 4278190080
374.09464 57.043911 891.62695 4278190080
1018.2532 846.82385 367.41458 4278190080
932.50226 245.87276 54.431217 4278190080
710.33728 246.02963 757.73669 4278190080
276.7901 29.878464 455.74689 4278190080
794.57355 948.32275 124.84092 4278190080
310.87985 744.33289 910.75519 4278190080
1020.7543 710.78577 1020.0361 4278190080
74.16188 1013.966 859.17365 4278190080
924.40515 977.70703 403.45029 4278190080
429.50204 327.80164 460.4942 4278190080
297.12903 322.05481 283.31808 4278190080
664.54358 230.55705 529.19086 4278190080
718.97479 940.89435 775.22046 4278190080
452.71152 193.68445 805.09894 4278190080
908.45844 988.25806 729.42169 4278190080
9.2993298 275.13788 449.75452 4278190080
920.0545 271.89212 136.54028 4278190080
916.09064 346.05399 126.50628 4278190080
751.26428 246.45912 80.213287 4278190080
130.71457 675.96118 408.01492 4278190080
591.20874 973.09015 730.06976 4278190080
874.52686 613.63379 960.62677 4278190080
379.71768 308.60858 877.52112 4278190080
130.93816 761.32013 47.205593 4278190080
936.03711 645.7785 11.463622 4278190080
641.45874 655.07782 286.6015 4278190080
67.21328 551.13232 558.49359 4278190080
203.75357 443.22299 904.54761 4278190080
330.25986 170.48729 127.00671 4278190080
410.47314 301.20184 802.96783 4278190080
818.4881 892.41058 752.05804 4278190080
524.5578 742.93744 341.6918 4278190080
461.1846 98.655136 650.30042 4278190080
314.70575 229.59329 387.62051 4278190080
361.91135 141.63037 9.3990107 4278190080
373.37497 783.08911 664.47687 4278190080
659.97644 850.30243 191.60921 4278190080
194.47005 30.055975 634.83221 4278190080
75.017647 360.31583 805.31952 4278190080
202.02435 770.78894 82.521339 4278190080
1004.9922 565.27704 974.93195 4278190080
733.05023 65.834839 693.86938 4278190080
50.742058 527.01941 792.52454 4278190080
701.04248 841.72516 1022.1178 4278190080
64.662956 179.63652 139.7482 4278190080
74.061966 553.01147 922.83734 4278190080
738.53882 188.98793 749.13977 4278190080
930.14801 383.45798 779.19574 4278190080
540.98022 458.47562 115.51154 4278190080
322.29974 660.5 886.30048 4278190080
404.82108 641.49219 427.57751 4278190080
355.75302 350.54245 493.41235 4278190080
25.622419 401.28452 1020.4318 4278190080
818.14697 78.326965 838.15698 4278190080
816.26477 142.98993 1017.7935 4278190080
956.013 217.0519 546.80499 4278190080
854.85028 955.5907 735.79291 4278190080
579.99005 861.73877 95.2509 4278190080
335.18576 378.71896 553.7265 4278190080
450.6973 701.01874 190.2265 4278190080
312.9978 81.839775 831.71869 4278190080
740.57532 437.5928 158.26115 4278190080
209.98769 463.21521 559.54565 4278190080
206.41949 257.36218 637.87262 4278190080
20.576483 49.626949 780.86255 4278190080
14.369989 1005.64 997.91449 4278190080
561.17499 836.49023 929.50519 4278190080
272.9679 392.48029 767.2439 4278190080
368.21878 727.66608 121.9629 4278190080
921.94531 154.36336 822.98163 4278190080
88.171822 467.36115 904.82141 4278190080
919.8905 183.93648 318.41418 4278190080
54.151684 393.92416 781.62939 4278190080
613.69733 600.34369 14.991571 4278190080
227.56999 620.92017 64.618523 4278190080
1008.4326 635.29016 46.258446 4278190080
982.34705 172.46512 882.74866 4278190080
887.85217 445.43301 251.22897 4278190080
631.09613 813.65179 978.89502 4278190080
753.05902 711.59711 109.25838 4278190080
552.04059 799.76892 576.61957 4278190080
432.862 695.65948 760.55603 4278190080
751.27618 749.81116 130.48019 4278190080
508.90558 339.50851 730.82385 4278190080
523.89716 567.07849 327.74402 4278190080
588.51569 551.51105 963.03418 4278190080
634.77411 509.85806 111.49929 4278190080
493.5228 373.71027 556.93231 4278190080
744.75177 1004.8064 346.58411 4278190080
699.64679 733.86536 34.181236 4278190080
808.90515 261.90598 833.9502 4278190080
361.52472 694.76801 505.60965 4278190080
98.080742 422.04416 231.42081 4278190080
228.56094 930.94971 570.92932 4278190080
959.38483 430.84686 114.00782 4278190080
263.12885 1019.3625 665.51886 4278190080
202.16301 630.1366 151.37695 4278190080
313.66232 99.659416 525.08722 4278190080
870.5946 844.41119 505.89359 4278190080
193.17873 520.05798 215.75897 4278190080
227.35997 304.96313 477.66498 4278190080
37.31015 666.48785 148.43295 4278190080
542.9198 764.5686 570.47711 4278190080
774.34064 993.12958 477.42682 4278190080
321.26993 928.51434 908.27368 4278190080
435.27774 167.6432 903.63617 4278190080
76.796623 369.80621 509.7728 4278190080
228.17358 683.46851 609.43225 4278190080
753.2608 530.06317 429.84341 4278190080
235.15439 723.24188 949.90137 4278190080
450.91336 950.60187 230.86453 4278190080
928.57837 987.91199 897.35242 4278190080
53.011284 506.83179 637.92102 4278190080
623.4884 257.17239 607.05054 4278190080
76.915192 578.44232 511.56491 4278190080
985.18884 1013.7201 679.20813 4278190080
864.82507 66.516708 25.014332 4278190080
350.59787 294.69028 708.48285 4278190080
960.03009 23.951082 214.54601 4278190080
365.8735 259.10547 937.7879 4278190080
291.77487 710.01886 864.38971 4278190080
522.6394 614.59717 828.3017 4278190080
395.99179 667.60846 311.13351 4278190080
9.9127884 267.09686 568.30591 4278190080
616.96332 344.01202 122.74825 4278190080
104.52824 305.2009 112.46833 4278190080
783.73633 146.02594 178.98505 4278190080
808.75067 496.62381 473.67532 4278190080
493.23355 432.65387 497.6264 4278190080
707.77954 798.52734 756.73187 4278190080
621.56744 66.302246 442.75073 4278190080
461.95715 588.94165 33.347916 4278190080
266.25888 984.93341 700.95636 4278190080
577.3924 994.84625 968.05322 4278190080
121.69832 587.80957 288.06528 4278190080
244.44658 692.33783 593.26617 4278190080
356.91492 452.07416 739.29211 4278190080
535.89996 236.82484 211.91591 4278190080
1009.5753 730.05841 644.56976 4278190080
483.20169 413.83795 419.09717 4278190080
215.93356 11.405378 485.39941 4278190080
658.68427 473.36255 50.341049 4278190080
692.03223 739.6214 11.274487 4278190080
368.98859 293.01382 1006.1207 4278190080
313.04184 414.71216 569.9303 4278190080
601.10712 659.15869 238.26808 4278190080
170.37326 1016.0736 690.34222 4278190080
909.66534 527.97357 927.16705 4278190080
97.581276 513.54883 633.22546 4278190080
742.15106 996.75055 23.063404 4278190080
137.24821 188.6841 34.468781 4278190080
622.64758 847.36841 507.83133 4278190080
672.98865 515.40057 223.45276 4278190080
684.26312 884.38916 516.46655 4278190080
666.38385 173.431 931.17871 4278190080
212.31415 774.53809 566.33746 4278190080
450.58221 944.91138 558.41107 4278190080
116.92445 830.57672 62.384655 4278190080
20.091532 928.15802 575.93353 4278190080
653.31702 646.30908 548.68402 4278190080
676.38037 783.55731 737.3681 4278190080
710.84918 382.2049 560.73651 4278190080
194.68051 31.193554 52.1371 4278190080
418.13327 715.45673 936.52631 4278190080
934.59985 357.84058 85.957291 4278190080
841.77856 570.15472 860.49542 4278190080
384.11603 1020.7369 781.40674 4278190080
942.5271 113.66138 587.98352 4278190080
1004.9117 133.75291 492.14151 4278190080
556.84528 787.06989 114.45058 4278190080
81.529297 439.45032 898.00787 4278190080
818.8974 126.29949 256.21277 4278190080
355.63394 320.98001 287.40631 4278190080
407.77103 739.11328 1002.863 4278190080
320.29733 649.71307 336.70358 4278190080
406.25461 467.49167 906.85828 4278190080
242.75 851.60767 903.59521 4278190080
0.15676641 770.13477 1017.2566 4278190080
588.14026 751.04657 127.00951 4278190080
56.28178 283.89182 914.07941 4278190080
170.73236 365.42111 329.52972 4278190080
44.740242 160.31853 455.82922 4278190080
300.953 515.95245 776.8092 4278190080
588.35931 923.72351 491.92245 4278190080
567.22235 220.02083 117.63556 4278190080
903.9259 626.27545 585.1272 4278190080
786.78424 869.02545 412.73492 4278190080
666.37946 869.18219 158.86971 4278190080
659.63605 433.32248 909.91626 4278190080
786.64551 489.60428 169.80804 4278190080
676.72491 660.33661 535.22913 4278190080
1006.2546 705.0769 695.54767 4278190080
438.08386 1006.0299 187.50015 4278190080
190.89307 570.38922 87.223656 4278190080
682.81555 113.61156 307.24448 4278190080
800.45111 1017.5375 933.51996 4278190080
361.57831 780.32172 778.54541 4278190080
774.31323 422.70114 623.7276 4278190080
933.18292 58.337154 33.050095 4278190080
819.09918 844.98267 522.65436 4278190080
988.90723 497.70761 158.991 4278190080
500.13638 479.96228 864.06787 4278190080
171.68405 918.04614 846.09778 4278190080
359.1842 84.939209 392.48697 4278190080
446.40787 767.75476 506.09851 4278190080
753.65234 544.20587 499.63602 4278190080
663.1723 905.78418 255.95772 4278190080
417.71768 656.09741 678.65887 4278190080
17.445284 565.28033 736.99603 4278190080
50.495377 360.37949 557.9787 4278190080
573.14972 325.28671 31.686308 4278190080
732.14075 825.4231 511.64859 4278190080
572.20862 997.10712 405.69473 4278190080
394.30634 332.29135 490.63394 4278190080
786.79333 778.69922 234.38867 4278190080
268.89185 508.35156 778.59454 4278190080
768.52783 147.52383 660.37866 4278190080
0.48556852 565.24152 292.47607 4278190080
679.14441 582.68677 857.75641 4278190080
392.14044 633.18219 194.13591 4278190080
950.11914 182.33191 519.42261 4278190080
981.80542 914.47266 320.8457 4278190080
469.45401 462.68124 293.95285 4278190080
875.14874 856.98755 626.2442 4278190080
341.78268 619.78088 380.94339 4278190080
576.17133 888.67273 889.29492 4278190080
330.76587 633.20056 12.818785 4278190080
991.14453 633.68616 578.0603 4278190080
259.62064 288.83057 136.74709 4278190080
93.377037 680.97101 769.92926 4278190080
287.51294 607.09015 952.26117 4278190080
806.93555 564.89557 842.73383 4278190080
103.7813 10.349602 281.41504 4278190080
397.73416 885.49835 114.40261 4278190080
1023.9783 203.28102 734.18347 4278190080
380.92175 779.45239 598.8562 4278190080
246.21671 86.218246 208.05679 4278190080
259.03549 53.362801 841.74292 4278190080
837.09576 312.98343 106.57349 4278190080
973.8429 406.36047 787.54449 4278190080
719.77216 693.87341 370.63464 4278190080
648.03326 476.80899 935.53021 4278190080
466.76709 580.59027 945.87982 4278190080
748.18213 978.32446 807.37817 4278190080
862.58472 978.3028 1010.6592 4278190080
572.76825 335.22455 766.11157 4278190080
147.62444 581.44128 852.32977 4278190080
355.68121 840.47675 905.69257 4278190080
173.42415 653.57257 194.67603 4278190080
279.99765 603.41541 601.0365 4278190080
43.54213 299.18756 270.90991 4278190080
414.17676 947.22083 747.71893 4278190080
325.70697 389.98795 304.3092 4278190080
247.58678 114.17005 258.63364 4278190080
30.964933 976.75476 212.93645 4278190080
17.624105 525.52301 548.16101 4278190080
783.73566 673.14746 105.60226 4278190080
612.06543 4.8286633 946.07904 4278190080
493.75803 178.25281 575.65155 4278190080
688.43402 458.25046 155.067 4278190080
265.47052 501.79257 454.25455 4278190080
536.38043 915.96936 377.4754 4278190080
260.09933 217.67632 767.46332 4278190080
564.40857 465.26309 881.63336 4278190080
823.04218 496.22803 834.38818 4278190080
11.978634 513.85211 335.91116 4278190080
560.13965 273.58777 1009.0586 4278190080
665.74188 885.6532 1013.8873 4278190080
587.82092 355.41122 168.14008 4278190080
139.4725 19.845268 626.3905 4278190080
294.53952 285.3158 104.18311 4278190080
748.79407 821.69623 1020.1525 4278190080
102.26947 57.795586 213.82878 4278190080
869.73279 622.20416 679.09186 4278190080
727.36621 421.24634 151.3199 4278190080
537.75439 433.22495 665.17206 4278190080
873.66553 993.36462 938.75983 4278190080
858.72412 635.10651 800.41302 4278190080
848.61139 198.92743 131.82426 4278190080
1016.7515 338.39993 151.66954 4278190080
619.14203 632.93945 436.98532 4278190080
723.32513 357.73352 234.68156 4278190080
719.4776 460.00299 292.47714 4278190080
933.30634 305.73581 914.68127 4278190080
588.39825 9.1019974 311.92761 4278190080
739.71814 546.85638 745.15259 4278190080
380.89017 396.52191 714.51715 4278190080
295.64999 231.24603 325.62366 4278190080
72.063026 55.85743 524.55109 4278190080
203.8873 48.608906 862.95105 4278190080
355.55682 667.75092 471.89047 4278190080
792.54218 367.07605 829.62402 4278190080
3.2237177 62.553631 265.62698 4278190080
295.70087 995.85999 571.36279 4278190080
186.38214 560.25824 580.46478 4278190080
498.30975 275.97638 103.32114 4278190080
219.46231 656.86658 499.84305 4278190080
933.97949 952.51654 731.08905 4278190080
235.60313 0.57957172 786.94647 4278190080
760.15424 204.46686 835.55542 4278190080
599.10522 560.02368 479.30634 4278190080
46.995712 328.56586 846.38239 4278190080
876.61969 331.78955 908.93597 4278190080
118.24669 627.49042 880.79602 4278190080
689.6095 813.87256 417.05423 4278190080
246.07425 288.18231 693.03058 4278190080
349.39539 507.64465 325.89716 4278190080
849.2384 417.62411 254.4137 4278190080
556.32751 653.22723 254.99327 4278190080
319.27399 389.38144 459.46014 4278190080
130.82939 988.48669 1019.4838 4278190080
610.13574 11.482403 324.04968 4278190080
432.51807 888.10211 655.83923 4278190080
317.45407 1006.3488 259.32965 4278190080
174.25006 671.95825 49.20224 4278190080
591.30432 918.03253 337.38455 4278190080
260.3349 243.42789 845.02917 4278190080
586.23206 68.666313 238.65332 4278190080
840.64575 624.99377 891.88055 4278190080
71.639 944.26782 257.26199 4278190080
531.09912 51.097183 221.7487 4278190080
526.58295 661.23291 233.23109 4278190080
850.63263 69.750977 97.333206 4278190080
482.47186 387.20505 79.682007 4278190080
741.80151 561.45514 751.64026 4278190080
791.00378 128.75941 645.67279 4278190080
104.38832 389.0943 889.10065 4278190080
949.41754 975.32635 957.76697 4278190080
164.07085 791.97211 558.7608 4278190080
31.951397 863.61108 479.02859 4278190080
289.21341 370.71021 530.12579 4278190080
510.9621 897.29315 167.35867 4278190080
744.19318 723.92578 237.10965 4278190080
841.52643 182.39764 624.3147 4278190080
921.20844 924.19916 161.76981 4278190080
648.84869 691.20294 290.52921 4278190080
270.52148 795.59125 679.62354 4278190080
135.62215 721.00879 630.94989 4278190080
69.38913 885.07959 398.92194 4278190080
628.1499 917.03101 238.53302 4278190080
83.178505 182.24442 609.24323 4278190080
613.30426 693.20654 482.53638 4278190080
780.66296 413.39972 182.46217 4278190080
1017.7726 230.92613 364.8598 4278190080
618.08728 128.13455 265.05899 4278190080
779.85706 776.98328 956.2619 4278190080
46.386299 23.504723 727.85315 4278190080
726.00983 159.12686 424.86194 4278190080
332.95969 228.51601 285.94153 4278190080
731.88159 856.66589 178.97255 4278190080
970.41461 939.84442 361.21698 4278190080
555.65784 529.14868 30.423494 4278190080
14.194246 285.81165 443.82321 4278190080
196.65642 279.5842 674.74933 4278190080
561.51624 897.67151 802.88391 4278190080
826.5752 653.52856 555.86713 4278190080
758.8371 699.91486 579.37189 4278190080
462.69028 401.92468 738.49872 4278190080
887.55219 734.88434 967.01477 4278190080
149.49374 442.76596 799.68066 4278190080
328.46628 389.1806 715.52509 4278190080
689.68329 944.83844 220.67378 4278190080
720.10675 959.03271 506.48541 4278190080
139.92998 131.68912 786.06964 4278190080
814.67932 693.20538 659.74109 4278190080
593.56323 495.78058 289.26965 4278190080
125.43039 230.61769 989.18451 4278190080
704.80225 693.30798 367.10919 4278190080
419.30099 556.86017 77.993546 4278190080
362.31577 706.35388 520.75952 4278190080
137.99641 10.820193 909.94012 4278190080
853.52148 700.50348 830.77856 4278190080
50.195297 396.61023 765.81128 4278190080
556.68073 536.54022 897.50037 4278190080
318.75034 327.21954 566.70575 4278190080
978.49146 920.78278 38.486313 4278190080
243.76112 22.213161 269.104 4278190080
208.94565 727.01544 962.41199 4278190080
576.05487 122.31644 495.27216 4278190080
654.0484 484.6322 177.62604 4278190080
150.80789 622.6286 188.44624 4278190080
36.748005 452.15012 888.94971 4278190080
867.52655 502.3454 261.55994 4278190080
609.33783 35.026127 798.1001 4278190080
482.8382 353.77646 101.31966 4278190080
25.543941 308.26791 1022.1024 4278190080
64.030258 552.02905 20.315594 4278190080
333.13428 760.97467 747.33099 4278190080
271.54623 313.02951 869.64746 4278190080
766.81842 967.07788 330.27963 4278190080
944.44446 93.885811 952.90826 4278190080
108.89067 130.63382 381.05838 4278190080
997.84039 998.1604 883.40381 4278190080
235.4003 583.49817 918.42993 4278190080
9.5004196 42.336403 248.20638 4278190080
110.82008 67.880341 556.4743 4278190080
108.92252 131.9106 84.503342 4278190080
129.2381 465.04486 845.47803 4278190080
876.56915 736.59113 134.50755 4278190080
722.21655 479.40952 77.585457 4278190080
28.496227 399.85394 171.47127 4278190080
981.40448 508.7446 302.10507 4278190080
338.46286 482.58499 276.26547 4278190080
197.86662 717.98529 859.76367 4278190080
92.296539 727.48572 902.10004 4278190080
340.50293 838.30579 969.98041 4278190080
896.97723 947.22827 77.891006 4278190080
981.48059 52.466393 542.93585 4278190080
802.95856 929.03552 255.52698 4278190080
937.46613 627.25208 734.93646 4278190080
1015.0516 655.74835 110.79043 4278190080
162.52286 613.15283 619.53503 4278190080
464.62796 951.61566 78.120026 4278190080
740.89343 125.48228 796.10529 4278190080
576.65704 217.77882 499.591 4278190080
454.75711 558.28174 313.89676 4278190080
400.73752 431.25897 237.12506 4278190080
478.62854 388.73953 289.59146 4278190080
1021.5644 167.6981 194.62697 4278190080
253.09138 81.164238 821.87909 4278190080
988.02789 72.215836 453.62741 4278190080
74.818298 234.73869 42.780205 4278190080
694.35333 699.36664 994.39587 4278190080
772.47339 416.26004 95.878136 4278190080
544.57867 992.91711 313.65695 4278190080
20.169655 423.67422 871.93872 4278190080
334.06644 824.41174 279.19766 4278190080
571.19147 279.04028 667.93719 4278190080
860.78296 276.60468 835.63531 4278190080
31.409901 529.69604 916.7995 4278190080
853.28894 493.72394 989.01538 4278190080
282.91638 568.54224 199.75406 4278190080
325.69656 238.89557 899.12073 4278190080
296.09244 1011.369 291.38074 4278190080
391.97058 531.94757 260.29785 4278190080
705.6275 552.11725 683.97211 4278190080
553.56622 886.18365 484.38385 4278190080
832.76385 433.37515 763.42413 4278190080
476.70105 270.15808 16.028826 4278190080
288.33633 301.56799 545.72491 4278190080
181.13586 130.85696 15.44883 4278190080
146.15123 413.77332 583.99109 4278190080
345.9053 739.46991 822.88666 4278190080
221.02599 11.562327 810.25555 4278190080
512.40674 403.5329 318.20319 4278190080
772.70459 85.160423 870.32043 4278190080
432.6767 638.72662 732.50409 4278190080
917.06055 447.49054 141.87927 4278190080
656.48468 924.19159 412.03735 4278190080
672.51355 188.52794 713.60535 4278190080
194.23842 369.66382 844.46228 4278190080
209.68724 515.81506 234.23564 4278190080
793.67828 861.72034 973.70551 4278190080
592.56494 58.746323 985.26788 4278190080
378.82053 571.15308 364.80075 4278190080
697.02368 319.85767 449.96118 4278190080
543.34412 752.53436 64.687828 4278190080
251.84825 645.59491 512.17834 4278190080
393.72751 278.07962 412.36993 4278190080
805.76489 950.59314 600.89789 4278190080
495.37021 120.83155 970.56171 4278190080
315.83252 330.5188 462.37674 4278190080
550.06818 100.1971 300.09705 4278190080
499.77368 692.76202 358.84338 4278190080
461.04156 47.582584 929.99646 4278190080
825.84229 744.60626 225.85411 4278190080
251.8035 263.95044 978.38849 4278190080
316.49133 515.79871 599.9834 4278190080
828.66968 909.52618 878.06299 4278190080
217.03963 691.29108 804.65613 4278190080
817.9375 162.66127 925.48767 4278190080
764.49921 478.4938 232.00648 4278190080
202.87592 4.5619602 332.20358 4278190080
502.97299 504.33566 0.96564245 4278190080
861.81635 965.3772 48.548225 4278190080
767.81281 767.21954 793.15454 4278190080
993.66693 1019.023 33.104946 4278190080
948.05542 311.51434 548.90363 4278190080
524.03876 116.18401 434.42981 4278190080
378.10181 333.22363 101.72087 4278190080
158.75795 127.16113 264.38214 4278190080
60.24564 891.66034 742.87592 4278190080
292.25214 70.536247 747.43793 4278190080
624.45569 573.50922 227.77356 4278190080
625.42139 411.32559 169.15077 4278190080
673.9696 155.1384 936.3703 4278190080
443.12411 124.80531 931.39331 4278190080
476.22903 48.860695 218.90765 4278190080
1.1326709 572.89948 335.09164 4278190080
435.56247 951.00128 668.31531 4278190080
537.28333 85.759224 795.47644 4278190080
801.66547 146.00487 663.13672 4278190080
520.54144 438.25699 733.67297 4278190080
243.97935 38.712708 283.18222 4278190080
471.7529 664.13409 694.50781 4278190080
640.90369 314.10367 849.64618 4278190080
553.27399 757.22778 974.45148 4278190080
460.6673 209.4568 1023.3122 4278190080
679.57495 210.58948 572.21167 4278190080
1014.6666 646.15198 499.21295 4278190080
658.98187 159.43532 584.97217 4278190080
430.45831 961.10083 730.97705 4278190080
69.595039 457.64224 145.23402 4278190080
803.26801 701.62158 183.94675 4278190080
62.450249 149.37451 848.08081 4278190080
756.95807 790.2782 138.18446 4278190080
582.60425 319.55215 895.41223 4278190080
533.05579 780.21948 80.869026 4278190080
532.36798 435.7944 291.4585 4278190080
80.579628 426.461 937.61047 4278190080
579.7926 61.442863 73.045776 4278190080
140.76477 491.90115 10.146585 4278190080
871.74182 561.49622 467.78885 4278190080
1016.9758 340.76422 145.41043 4278190080
176.92258 403.21448 294.78494 4278190080
1.0033817 136.17255 61.063126 4278190080
139.18785 718.77679 380.6153 4278190080
10.600067 227.83255 136.83475 4278190080
91.469093 760.2005 572.62915 4278190080
382.92761 840.78015 999.09009 4278190080
296.53806 396.57272 36.532982 4278190080
369.58386 537.33746 528.43414 4278190080
379.73044 385.07928 65.930351 4278190080
847.51929 378.05511 406.69458 4278190080
992.92969 554.97772 809.90906 4278190080
263.71463 555.98108 946.0816 4278190080
324.77777 695.16895 640.8584 4278190080
705.39307 705.76898 868.69098 4278190080
842.22778 797.2381 604.89148 4278190080
390.85693 156.16568 421.67157 4278190080
365.94705 452.70377 818.24432 4278190080
402.48004 822.2876 331.58179 4278190080
930.91418 178.01804 716.66107 4278190080
996.84454 1.5373054 70.716187 4278190080
379.53912 994.46698 625.69391 4278190080
165.44818 234.18164 157.67496 4278190080
87.5298 558.95941 852.84387 4278190080
728.38818 240.35248 534.61285 4278190080
573.07916 58.58028 307.85095 4278190080
153.9706 449.43723 464.01663 4278190080
575.64221 815.38428 916.7204 4278190080
369.88647 193.8643 715.008 4278190080
701.46826 100.77848 893.02606 4278190080
394.12933 73.623009 894.56335 4278190080
464.84552 453.16214 865.03033 4278190080
66.539398 618.61029 75.21199 4278190080
224.21436 706.14014 634.17139 4278190080
53.058231 410.52832 874.52386 4278190080
587.67108 983.60748 933.10419 4278190080
895.52203 113.57806 358.54138 4278190080
335.53867 689.22021 149.92564 4278190080
228.25906 35.106724 343.78995 4278190080
943.26703 736.57501 444.56842 4278190080
812.29309 106.70432 518.19147 4278190080
682.85645 571.54987 971.35358 4278190080
523.88678 638.08923 565.96387 4278190080
599.09875 862.30359 248.10399 4278190080
209.27019 915.36182 658.63232 4278190080
59.794064 479.03293 618.23975 4278190080
992.89825 350.55496 731.81781 4278190080
327.43961 686.09363 397.03806 4278190080
477.36526 914.35272 432.14478 4278190080
821.15521 833.61975 144.71977 4278190080
241.72365 621.91284 251.42409 4278190080
759.9151 280.76929 822.97394 4278190080
707.26868 804.65607 437.0632 4278190080
249.23254 379.75485 275.36679 4278190080
497.33652 589.02502 166.72864 4278190080
131.96883 648.81909 645.76154 4278190080
750.20856 617.71729 996.31653 4278190080
458.0264 945.15692 658.41016 4278190080
855.06445 398.52219 548.76288 4278190080
263.2092 195.67738 358.38263 4278190080
407.92899 437.40103 980.29547 4278190080
659.35309 173.31612 237.06477 4278190080
458.32703 880.58478 17.720844 4278190080
895.3902 105.81731 397.47568 4278190080
146.757 603.15387 986.50073 4278190080
313.48563 735.12268 611.31976 4278190080
959.24719 461.33124 205.03709 4278190080
931.56372 919.3576 126.19402 4278190080
565.97388 750.42206 524.71619 4278190080
90.736755 1013.6313 720.39355 4278190080
449.11938 397.56024 133.79462 4278190080
405.41489 32.913319 307.11075 4278190080
642.47968 491.24033 163.69551 4278190080
660.2005 362.63052 269.51282 4278190080
33.676178 509.38754 872.66669 4278190080
1020.1769 822.87317 583.78931 4278190080
607.49664 758.12036 21.120571 4278190080
812.53375 665.68408 940.47821 4278190080
938.72778 207.65794 666.90027 4278190080
439.44397 298.39468 656.53149 4278190080
135.83757 747.5141 30.09177 4278190080
269.63217 128.92896 63.005089 4278190080
576.74292 771.40863 554.24542 4278190080
740.43842 407.6091 916.87598 4278190080
1009.9512 441.28528 402.26349 4278190080
858.61792 437.46216 201.13664 4278190080
418.40726 20.958832 959.25702 4278190080
439.52783 833.49261 600.94104 4278190080
356.00601 748.2204 808.599 4278190080
1022.9062 163.66437 82.993698 4278190080
655.43781 299.50192 830.50775 4278190080
685.52954 569.13409 959.43677 4278190080
748.53467 121.87703 706.84534 4278190080
278.78009 862.31543 90.45446 4278190080
171.65604 848.26672 531.73975 4278190080
573.91949 682.88464 969.2019 4278190080
775.05615 77.29187 990.16077 4278190080
710.31317 516.8197 799.65332 4278190080
287.25421 872.82574 523.87372 4278190080
71.853195 871.73199 687.53809 4278190080
154.84689 503.1698 987.04004 4278190080
985.35468 164.69936 532.17413 4278190080
920.79138 913.23401 654.05115 4278190080
603.63678 168.01408 492.36661 4278190080
694.09125 339.67014 316.63333 4278190080
201.83096 913.58966 999.51794 4278190080
147.03287 664.64581 52.809814 4278190080
113.19361 350.95895 569.62952 4278190080
912.84692 638.21313 418.45523 4278190080
412.72067 710.06635 266.18723 4278190080
76.258759 864.91327 769.35699 4278190080
39.298775 826.26794 934.05634 4278190080
571.4729 723.05933 823.29034 4278190080
201.52406 302.69611 991.30444 4278190080
693.89069 996.78729 306.97458 4278190080
1010.524 174.61827 196.56422 4278190080
986.04193 321.65115 861.21002 4278190080
14.851751 434.84476 188.16898 4278190080
584.48126 323.69171 826.38214 4278190080
1002.9365 736.41235 512.44849 4278190080
245.1237 812.67114 353.36172 4278190080
1014.4807 851.96991 155.62964 4278190080
924.53705 399.44281 878.68896 4278190080
723.82745 600.96686 157.38507 4278190080
691.1319 270.85757 130.17238 4278190080
998.10651 257.38156 304.79065 4278190080
170.67072 219.42351 626.44177 4278190080
7.880744 234.27525 37.286545 4278190080
196.04971 818.75653 360.97824 4278190080
1022.4318 797.69299 73.390625 4278190080
510.88031 18.816715 886.06177 4278190080
864.24207 9.29743 714.03168 4278190080
1019.8717 933.83453 89.474487 4278190080
874.56067 633.66193 690.44135 4278190080
7.9457259 300.79388 961.29895 4278190080
138.1181 274.90036 194.6805 4278190080
442.90875 445.57108 414.104 4278190080
45.35054 453.45184 648.37927 4278190080
82.637085 649.50153 443.13577 4278190080
443.61533 647.93341 216.82878 4278190080
517.00598 134.81372 235.64549 4278190080
379.06772 999.05579 244.94293 4278190080
69.099388 994.92743 154.77744 4278190080
158.57387 845.4881 788.43939 4278190080
849.01526 853.43384 65.233261 4278190080
786.31415 991.55194 340.13364 4278190080
980.99469 410.46069 785.70471 4278190080
371.09869 455.81122 215.15656 4278190080
1019.478 538.4483 864.65808 4278190080
438.61371 982.06366 488.59149 4278190080
655.4425 475.06961 623.40521 4278190080
891.08801 854.13733 598.461 4278190080
112.03093 923.23669 569.38843 4278190080
266.80838 57.810585 390.87656 4278190080
31.247761 906.82581 220.31041 4278190080
96.481018 669.14001 187.86235 4278190080
436.61465 626.13464 598.32306 4278190080
198.31937 997.23334 30.134274 4278190080
413.47592 992.7113 568.58258 4278190080
254.13403 407.32501 526.64624 4278190080
742.72552 38.767509 1001.7159 4278190080
342.13074 929.85553 831.85321 4278190080
940.59174 17.88644 731.0899 4278190080
485.98016 284.69479 788.90051 4278190080
876.85675 315.94257 671.72632 4278190080
73.16713 412.42358 316.8663 4278190080
261.02948 849.03827 943.00098 4278190080
859.35254 23.357615 916.23431 4278190080
889.48682 436.83353 884.94562 4278190080
434.0694 690.96759 268.27063 4278190080
960.71564 409.69312 307.03815 4278190080
938.43146 751.82385 212.89366 4278190080
746.28467 668.41559 230.78009 4278190080
453.37457 130.39575 515.47491 4278190080
218.27507 1007.2525 831.41748 4278190080
890.0014 56.419613 219.84106 4278190080
182.86769 317.4491 44.879307 4278190080
101.86867 152.80161 68.236923 4278190080
1018.103 18.288403 505.07047 4278190080
879.04865 452.35779 172.03802 4278190080
123.31927 389.07343 581.73114 4278190080
430.35742 303.50491 309.55499 4278190080
643.25104 25.789572 977.97058 4278190080
874.03119 479.16415 84.366318 4278190080
365.50607 697.43921 67.618797 4278190080
172.92354 563.44061 124.03841 4278190080
392.76462 746.30829 441.48749 4278190080
437.64392 848.17694 594.28912 4278190080
505.88083 842.27997 612.57751 4278190080
1010.9513 697.32861 40.935299 4278190080
158.98932 820.64783 430.00873 4278190080
740.72046 227.00526 733.51361 4278190080
26.27544 870.25635 759.30316 4278190080
1004.246 720.28748 214.46733 4278190080
64.61232 61.793564 911.90656 4278190080
132.23111 234.7171 451.34714 4278190080
256.26953 627.48169 173.65541 4278190080
697.75702 41.125618 1021.8323 4278190080
268.04614 547.00647 840.1123 4278190080
880.62366 533.95776 513.44092 4278190080
921.55896 692.94708 310.08875 4278190080
327.56766 409.66751 537.09399 4278190080
37.081272 435.94296 383.35034 4278190080
796.38446 416.18896 79.637848 4278190080
1010.8518 480.80127 141.43141 4278190080
898.75836 613.03241 376.14853 4278190080
326.10547 869.30194 1003.6302 4278190080
499.76086 543.05896 20.755848 4278190080
497.59323 811.1051 567.76227 4278190080
313.70554 667.7287 77.720032 4278190080
827.14642 565.28766 770.66711 4278190080
113.23518 892.85529 156.33463 4278190080
650.32922 929.93658 592.27759 4278190080
9.6795502 702.32104 1008.4666 4278190080
89.317398 689.17285 465.26782 4278190080
230.74881 563.93115 54.300228 4278190080
606.89734 890.03662 923.60217 4278190080
586.52759 365.79752 442.6611 4278190080
607.28339 863.39075 229.76617 4278190080
151.04572 153.09628 897.49487 4278190080
228.76575 980.24274 438.78253 4278190080
999.43286 69.477905 307.63785 4278190080
131.76747 719.80713 213.57443 4278190080
724.04504 729.48663 915.89545 4278190080
708.5116 818.80408 581.0683 4278190080
149.77942 25.552868 120.99947 4278190080
204.07965 632.4502 1011.0361 4278190080
103.6818 194.97777 352.83362 4278190080
546.3429 802.26117 192.22437 4278190080
776.10907 953.30688 345.32065 4278190080
649.60394 158.07265 301.56339 4278190080
64.386482 133.50549 371.04126 4278190080
372.02432 265.27295 66.848373 4278190080
585.59875 989.31799 796.33502 4278190080
477.49423 673.82959 591.1391 4278190080
34.562538 823.60901 616.69196 4278190080
155.56201 3.6886616 225.14215 4278190080
142.59811 107.37046 420.11993 4278190080
495.43173 653.71338 198.38112 4278190080
687.65613 405.82242 127.68801 4278190080
8.9767628 31.426371 285.76065 4278190080
310.54013 95.812859 419.26617 4278190080
681.58142 467.83719 684.53912 4278190080
748.42981 29.435953 649.85712 4278190080
520.76483 506.93018 299.68671 4278190080
87.903893 541.49274 99.295731 4278190080
704.59583 697.05475 102.9844 4278190080
929.73798 839.65283 210.35486 4278190080
325.85791 311.08459 864.06824 4278190080
524.23901 998.74072 245.89064 4278190080
651.92706 1007.7175 277.31702 4278190080
937.68768 294.2576 373.12985 4278190080
332.95386 975.83899 840.96704 4278190080
1017.493 700.2688 870.40302 4278190080
643.3501 197.03362 353.33319 4278190080
943.0368 284.9375 894.82593 4278190080
18.332558 989.53333 567.88068 4278190080
121.31696 895.2713 383.53351 4278190080
331.67181 197.12923 694.6181 4278190080
171.74002 721.36823 669.35883 4278190080
417.63068 349.29529 653.07629 4278190080
694.94769 262.983 947.33386 4278190080
44.077541 595.93683 899.17285 4278190080
885.04462 589.42981 575.44165 4278190080
731.44763 208.77994 772.47528 4278190080
60.780811 127.81676 33.412785 4278190080
955.60675 146.14932 1022.9461 4278190080
499.4874 267.46628 894.21747 4278190080
883.02087 599.13806 67.346672 4278190080
553.63898 770.87811 788.7149 4278190080
198.9978 164.50877 114.01022 4278190080
852.0741 859.45648 376.99323 4278190080
775.40796 903.534 972.93005 4278190080
650.58081 764.57861 538.35992 4278190080
202.02249 472.02621 747.13983 4278190080
974.4978 532.80701 874.9566 4278190080
1007.9106 464.41376 1021.106 4278190080
1006.8567 963.90112 264.5722 4278190080
877.0741 822.92206 863.71027 4278190080
944.42078 352.56107 610.58838 4278190080
709.13574 551.55884 775.09717 4278190080
823.14594 379.63293 610.55365 4278190080
176.13914 131.04088 490.08765 4278190080
125.06921 781.6217 230.66624 4278190080
663.42914 983.64417 702.69244 4278190080
386.56894 934.14197 211.49948 4278190080
237.52554 918.05255 675.91321 4278190080
234.63147 900.90924 615.81439 4278190080
499.20367 753.98334 414.73645 4278190080
338.91397 674.40411 767.29749 4278190080
949.50238 359.53986 294.85635 4278190080
700.59955 158.68579 674.48932 4278190080
287.15323 334.82492 805.53021 4278190080
777.24084 459.89413 563.15192 4278190080
1007.9071 99.32325 522.79608 4278190080
686.59955 485.89221 432.93805 4278190080
898.09906 723.41772 326.9906 4278190080
550.01227 958.04926 203.89981 4278190080
141.82666 433.2529 957.88312 4278190080
556.56311 772.16687 608.28729 4278190080
299.8606 697.66925 967.82709 4278190080
594.71698 374.26883 102.5129 4278190080
245.20627 661.42206 437.33783 4278190080
26.736456 414.6629 897.23199 4278190080
589.88837 398.57001 996.55524 4278190080
88.684433 61.169575 458.44742 4278190080
521.6225 959.26862 157.86519 4278190080
848.6131 485.28088 91.914406 4278190080
28.512886 627.10754 525.1673 4278190080
986.396 159.67062 273.3342 4278190080
570.68329 459.53122 971.00348 4278190080
514.51044 30.248177 321.27231 4278190080
617.02332 275.45444 982.69434 4278190080
30.361145 302.19089 373.35727 4278190080
927.59314 892.07922 771.92731 4278190080
900.14838 980.76367 833.09686 4278190080
334.59579 478.38617 768.36548 4278190080
492.46097 302.99924 229.64635 4278190080
584.37537 331.51215 856.75391 4278190080
85.542694 293.90817 1016.4245 4278190080
358.87689 864.59143 451.95572 4278190080
305.88037 355.10187 482.20392 4278190080
627.15265 972.12518 757.65833 4278190080
585.84698 1002.4863 35.849251 4278190080
959.20428 906.07947 927.92847 4278190080
707.13153 782.22778 884.6922 4278190080
516.22839 92.823593 339.07834 4278190080
260.5939 585.28455 642.07758 4278190080
490.24023 145.65994 973.58972 4278190080
322.99414 231.20264 243.49788 4278190080
315.41864 590.07953 84.089333 4278190080
767.37439 895.9599 439.19119 4278190080
225.57828 499.11255 387.31638 4278190080
983.23663 60.95956 365.8027 4278190080
1019.0859 1020.1638 247.88214 4278190080
923.0144 703.29541 6.1099362 4278190080
783.70654 195.52382 98.933525 4278190080
98.784897 456.11771 684.21808 4278190080
740.86249 946.35797 829.87805 4278190080
690.45221 245.35208 37.080658 4278190080
933.95007 560.77069 627.16016 4278190080
1018.0394 304.14508 499.12009 4278190080
433.23062 529.72339 998.2326 4278190080
820.547 488.96002 35.192184 4278190080
162.34969 484.0459 31.356026 4278190080
410.23181 383.06027 734.65143 4278190080
416.34177 142.76682 930.17523 4278190080
515.27527 241.55171 362.29297 4278190080
175.49336 982.41418 284.65091 4278190080
1005.3714 648.86639 530.00299 4278190080
18.452049 558.81647 66.773705 4278190080
645.61224 552.8559 370.91879 4278190080
120.73231 986.08655 900.64215 4278190080
94.964935 782.63354 365.60217 4278190080
130.15712 944.98322 849.64807 4278190080
161.51315 331.21503 208.70834 4278190080
896.16455 747.55676 351.47516 4278190080
802.33984 238.83206 593.02686 4278190080
140.63278 414.32544 551.4411 4278190080
425.28369 395.69684 176.30748 4278190080
955.28668 414.14886 735.12396 4278190080
1022.0604 35.761112 263.97989 4278190080
368.97919 156.49342 226.06644 4278190080
245.62134 251.45836 1008.7 4278190080
611.22351 381.61548 929.68317 4278190080
436.87158 543.1286 236.89822 4278190080
645.57996 415.29318 984.45502 4278190080
997.05511 193.63301 199.28708 4278190080
566.08197 334.26581 613.61255 4278190080
93.523041 759.5495 1009.3093 4278190080
269.83051 690.83618 399.45822 4278190080
1004.9545 688.89655 435.21933 4278190080
244.93439 33.875713 591.71277 4278190080
471.00082 279.49707 843.17114 4278190080
455.70081 890.72058 200.78659 4278190080
361.384 303.59216 743.91522 4278190080
598.28223 949.17212 135.2084 4278190080
558.73724 922.22717 328.84143 4278190080
758.02429 464.30914 663.10724 4278190080
347.63684 557.83221 398.65671 4278190080
332.9462 827.66272 65.492867 4278190080
732.40442 808.61719 754.3894 4278190080
143.62375 29.551601 788.26514 4278190080
735.33649 500.55243 43.762173 4278190080
554.50763 956.25323 934.48273 4278190080
755.29419 293.63721 214.07492 4278190080
475.20941 891.91943 139.24701 4278190080
610.41785 426.65668 37.474197 4278190080
939.25922 160.681 501.78336 4278190080
578.36646 508.31784 35.615551 4278190080
977.02319 841.26404 863.27826 4278190080
18.516033 549.66846 647.89551 4278190080
772.90546 693.29218 677.44708 4278190080
537.17053 404.62869 153.99951 4278190080
580.93274 959.13629 86.252739 4278190080
491.41547 690.43048 379.88995 4278190080
705.49042 141.63992 247.8094 4278190080
844.73743 752.05774 674.46606 4278190080
882.21161 667.31696 835.14709 4278190080
359.99496 221.68344 319.4649 4278190080
395.6105 174.7066 136.72893 4278190080
234.88878 193.22264 686.39734 4278190080
882.78424 966.12805 355.68954 4278190080
536.23132 479.29865 760.31824 4278190080
690.23083 36.231361 695.45453 4278190080
776.48358 527.64685 361.88504 4278190080
132.37355 209.13722 503.52496 4278190080
380.18295 29.874622 231.58269 4278190080
30.649029 912.08624 898.89966 4278190080
865.79608 248.08118 96.583122 4278190080
161.261 643.69165 271.28973 4278190080
297.98993 878.58044 464.51236 4278190080
984.38733 737.36469 406.64044 4278190080
316.07684 249.59604 885.93909 4278190080
52.395077 939.8269 922.17047 4278190080
747.84961 692.31049 425.81729 4278190080
