# .PCD v0.7 - Point Cloud Data file format
VERSION 0.7
FIELDS x y z rgb
SIZE 4 4 4 4
TYPE F F F U
COUNT 1 1 1 1
WIDTH 1175
HEIGHT 1
VIEWPOINT 0 0 0 1 0 0 0
POINTS 1175
DATA ascii
499.69141 136.53966 837.2135 4278190080
880.47705 320.59586 729.39252 4278190080
12.111525 55.787102 530.73273 4278190080
64.666405 643.4455 781.97461 4278190080
261.85339 723.33289 988.17834 4278190080
5.2118902 952.82416 410.24045 4278190080
607.89594 607.36346 617.99957 4278190080
951.93317 1019.9138 699.45081 4278190080
602.91785 492.13376 666.25543 4278190080
309.16351 174.98196 755.0614 4278190080
147.6653 674.6734 891.60101 4278190080
984.87878 531.15039 188.19688 4278190080
690.27124 543.2619 243.98399 4278190080
197.00401 607.92834 887.42944 4278190080
978.97864 869.78174 586.76239 4278190080
943.15698 874.99365 515.58655 4278190080
329.39743 458.88956 98.95002 4278190080
947.39703 386.82272 94.863853 4278190080
622.84784 989.7406 586.99762 4278190080
265.1033 274.90411 761.97955 4278190080
1020.1647 422.56943 412.65295 4278190080
887.76569 383.44818 943.80334 4278190080
51.962593 49.719456 463.06528 4278190080
295.94659 246.72346 46.99361 4278190080
159.37605 201.7021 916.77533 4278190080
746.13843 120.85909 767.76898 4278190080
237.72498 450.2565 202.65854 4278190080
336.67499 373.65353 589.48126 4278190080
431.53885 996.50134 555.22186 4278190080
1018.5364 237.60466 830.12598 4278190080
756.51599 233.76932 228.69542 4278190080
145.16896 97.535034 612.14362 4278190080
64.972305 149.49762 661.86304 4278190080
528.0376 445.44421 908.58655 4278190080
575.03119 604.82025 86.288628 4278190080
467.80652 326.95868 207.14772 4278190080
211.5755 564.68365 657.40424 4278190080
414.23404 901.35864 7.0577526 4278190080
1003.7153 308.89749 1003.5591 4278190080
534.93719 303.43393 217.16377 4278190080
341.06317 35.949951 450.93311 4278190080
569.75861 181.11891 548.46814 4278190080
157.90219 246.09122 697.96576 4278190080
819.76526 774.12878 119.40996 4278190080
704.35175 325.15997 724.23022 4278190080
790.64038 792.96649 27.188885 4278190080
997.78809 1004.542 591.87256 4278190080
631.19232 394.77606 469.23117 4278190080
638.25012 374.49136 778.12866 4278190080
617.8092 909.42853 57.562576 4278190080
834.97296 226.4917 93.512527 4278190080
261.9061 796.25031 274.63144 4278190080
810.37421 954.15247 520.72266 4278190080
484.33997 749.91772 270.85144 4278190080
603.74994 430.26947 596.01141 4278190080
303.98016 196.90988 364.97794 4278190080
331.16904 170.698 345.51996 4278190080
923.04156 801.89032 740.29602 4278190080
368.27274 416.14044 90.787354 4278190080
122.40137 9.9496498 1000.2159 4278190080
179.96394 844.92267 202.70758 4278190080
273.47647 82.828728 998.95782 4278190080
548.10791 893.20294 929.11029 4278190080
44.830563 353.54294 655.02802 4278190080
315.68201 957.29285 61.297493 4278190080
911.69342 237.27303 258.20737 4278190080
252.67137 568.44208 428.90536 4278190080
598.19135 467.48361 206.79572 4278190080
314.4873 835.75635 622.93616 4278190080
405.27466 958.15771 632.8858 4278190080
381.49054 114.12166 453.80844 4278190080
584.19812 387.59814 536.63715 4278190080
559.15601 935.70605 405.84012 4278190080
464.2663 980.53662 759.38306 4278190080
95.294304 272.21863 692.67596 4278190080
156.5918 159.91205 929.94897 4278190080
414.79916 412.5834 474.39102 4278190080
843.70453 1010.7747 941.87463 4278190080
26.500269 301.26205 753.63098 4278190080
649.4364 706.53674 687.7887 4278190080
258.32224 64.027267 801.91034 4278190080
712.13068 648.2254 165.50845 4278190080
224.76785 183.38138 77.214508 4278190080
630.60797 647.64764 33.751114 4278190080
365.99103 742.94196 305.96973 4278190080
34.666973 899.53375 465.88177 4278190080
964.61591 290.33295 878.46515 4278190080
415.00693 110.03749 865.23993 4278190080
332.88156 136.53777 142.50194 4278190080
62.512527 785.97418 849.03864 4278190080
750.30121 20.296412 913.06592 4278190080
528.21155 732.42706 537.29132 4278190080
693.71997 957.19495 720.67267 4278190080
770.93451 563.80292 344.32034 4278190080
804.68561 929.79395 63.262325 4278190080
86.655334 964.46094 962.79608 4278190080
552.53711 905.07684 229.12903 4278190080
407.00229 296.0838 339.1665 4278190080
248.24219 628.96533 475.70428 4278190080
390.74411 691.47791 237.67847 4278190080
215.78278 417.77908 257.97488 4278190080
104.8487 945.9906 990.40198 4278190080
642.14001 615.71057 923.59686 4278190080
338.81271 362.64508 463.39978 4278190080
683.13306 143.33069 369.19373 4278190080
746.39539 229.98602 309.65466 4278190080
685.19147 782.52313 190.73151 4278190080
914.3205 165.52542 486.81531 4278190080
229.48703 413.76761 91.780655 4278190080
705.19128 804.51172 783.25854 4278190080
942.86975 1020.2945 177.03761 4278190080
176.84464 101.14319 99.028229 4278190080
143.2466 743.2832 714.73883 4278190080
42.843487 58.095921 53.383904 4278190080
506.24329 741.229 196.7146 4278190080
875.43701 463.62439 426.70062 4278190080
161.09169 124.81586 185.22375 4278190080
351.82318 15.136374 350.74918 4278190080
838.63849 244.6234 764.51678 4278190080
930.41913 949.8147 545.0285 4278190080
689.67767 868.68445 541.323 4278190080
866.71533 21.52911 642.46619 4278190080
965.74353 164.77571 361.74939 4278190080
656.48236 207.61919 419.84531 4278190080
709.86627 713.86249 137.07428 4278190080
906.58087 565.2995 600.69867 4278190080
309.28149 726.39117 725.51453 4278190080
494.50525 54.214378 740.65094 4278190080
845.25439 892.85291 985.27429 4278190080
585.77118 799.27203 911.08899 4278190080
106.79967 464.94974 755.7735 4278190080
648.12262 307.66504 777.30261 4278190080
266.58881 249.4086 942.07831 4278190080
628.3382 905.89099 125.6975 4278190080
24.183481 591.75726 839.56 4278190080
161.25777 474.3381 380.85947 4278190080
761.95642 783.61957 83.250648 4278190080
463.47098 254.12485 137.46503 4278190080
180.12189 75.379257 6.317903 4278190080
141.39619 661.15045 805.58997 4278190080
28.485218 767.95013 246.53967 4278190080
784.25873 392.07275 554.20471 4278190080
537.56128 658.66156 803.61334 4278190080
455.63962 262.99976 685.50427 4278190080
581.3371 287.18323 253.26152 4278190080
396.89709 448.44098 727.59961 4278190080
777.75653 186.39743 487.21921 4278190080
861.0072 649.86841 741.34406 4278190080
998.47223 829.9903 816.72333 4278190080
1004.7902 971.38647 453.87375 4278190080
786.38007 999.8717 197.82387 4278190080
8.9197435 760.13043 589.89661 4278190080
563.12445 273.69171 224.55817 4278190080
342.73779 729.33136 487.55792 4278190080
4.2420797 286.66846 774.74115 4278190080
257.5036 683.56555 199.18213 4278190080
985.10321 437.32208 385.57956 4278190080
448.32245 274.32928 11.447973 4278190080
165.6665 248.80151 841.43829 4278190080
982.38983 229.59164 788.82477 4278190080
412.26358 1015.9717 764.69647 4278190080
610.0874 0.89145613 500.8269 4278190080
175.98404 564.01593 774.51862 4278190080
400.54221 906.75372 479.84998 4278190080
888.1001 910.99579 766.51843 4278190080
638.84125 144.4994 426.08392 4278190080
838.02338 105.60262 863.40601 4278190080
199.60295 553.92505 113.73528 4278190080
211.05093 719.59155 362.5368 4278190080
28.489201 677.98138 592.12842 4278190080
817.31396 66.244949 584.10016 4278190080
558.01044 676.3324 584.99158 4278190080
34.837357 852.31641 125.00752 4278190080
809.35596 228.85863 7.7612438 4278190080
265.20593 92.958755 918.75702 4278190080
7.7243443 731.79999 39.256439 4278190080
433.80826 545.82343 144.85907 4278190080
273.21426 745.42639 698.78412 4278190080
386.94955 956.47729 394.3757 4278190080
749.48633 984.96649 48.357079 4278190080
317.61478 778.28046 114.60203 4278190080
901.7149 312.29092 790.93439 4278190080
462.70654 347.12827 619.25085 4278190080
587.71405 132.48425 848.10944 4278190080
595.47528 397.69019 941.06824 4278190080
490.23233 405.41455 648.86823 4278190080
529.48877 839.22284 170.69164 4278190080
674.34784 88.437088 916.11798 4278190080
349.13199 475.38663 848.59528 4278190080
743.50769 200.87299 809.56177 4278190080
791.86475 518.48779 563.84222 4278190080
906.4668 396.2027 876.13318 4278190080
673.40118 858.90924 199.26143 4278190080
268.65201 422.62329 331.7457 4278190080
92.761475 1018.0986 729.43585 4278190080
9.8296852 484.33093 110.85042 4278190080
658.69794 1013.8197 950.07324 4278190080
829.38953 664.16754 14.510315 4278190080
721.50751 1013.2995 489.89697 4278190080
546.10284 732.80719 690.76996 4278190080
331.66461 500.67194 185.25772 4278190080
895.50684 383.13873 581.46045 4278190080
747.64001 32.539921 416.36966 4278190080
946.90143 301.19193 838.99292 4278190080
254.64713 393.9534 833.09149 4278190080
984.08301 403.78311 293.42242 4278190080
70.933434 38.48101 283.24213 4278190080
1021.0067 867.87054 947.40967 4278190080
11.51698 565.37805 936.70917 4278190080
501.41394 87.480904 645.51642 4278190080
168.18388 419.14551 122.18834 4278190080
353.44162 290.65234 505.32709 4278190080
934.90204 14.292355 537.867 4278190080
327.27167 961.19379 839.05896 4278190080
142.2646 191.84093 209.01234 4278190080
975.35608 151.92393 612.79547 4278190080
244.77853 222.85738 651.27643 4278190080
528.02063 219.86404 495.147 4278190080
451.43033 231.38103 36.525085 4278190080
364.13953 732.79498 124.00599 4278190080
1009.6559 900.97882 543.15149 4278190080
107.84425 230.42046 833.80383 4278190080
613.17133 141.32248 848.09619 4278190080
127.03832 468.59415 785.28998 4278190080
966.09723 610.85876 977.13092 4278190080
151.1096 562.21484 105.05486 4278190080
763.90503 806.99341 327.91223 4278190080
391.18149 311.01404 547.77625 4278190080
886.32849 762.4444 779.15729 4278190080
922.85358 102.58389 487.95224 4278190080
22.859573 88.239807 364.93109 4278190080
566.01105 196.08406 595.35156 4278190080
375.81488 809.25537 736.67401 4278190080
199.91109 936.2937 181.26817 4278190080
985.20105 878.39093 792.12689 4278190080
938.33197 5.5005584 330.34177 4278190080
19.386833 769.40558 113.33515 4278190080
347.29907 136.5871 424.34918 4278190080
895.07532 1022.9156 162.79356 4278190080
650.2326 921.76917 265.37747 4278190080
114.18487 944.62878 353.61728 4278190080
479.11597 486.63983 549.70135 4278190080
50.467506 862.45471 334.95673 4278190080
787.14154 38.365799 247.25043 4278190080
968.40967 1023.5669 101.64138 4278190080
736.53662 937.89886 107.14194 4278190080
42.87838 957.28564 876.54755 4278190080
156.21353 280.58475 1013.1346 4278190080
580.56274 151.66006 1012.0502 4278190080
743.35632 801.8927 909.81946 4278190080
1008.7338 916.07758 830.44818 4278190080
338.35104 371.19351 293.08804 4278190080
888.05237 421.66104 131.54276 4278190080
199.00908 184.80257 169.90855 4278190080
446.25949 129.21225 169.47542 4278190080
547.90088 865.74884 83.37426 4278190080
655.04285 908.62726 16.659939 4278190080
507.59036 40.840782 297.24469 4278190080
496.72501 621.4035 448.90475 4278190080
484.77524 340.7598 226.79744 4278190080
370.5947 325.49356 118.875 4278190080
177.04289 663.8446 490.06851 4278190080
470.13092 527.89697 911.72955 4278190080
601.67371 726.90607 72.53212 4278190080
771.58221 149.16554 201.74437 4278190080
941.05768 697.06641 43.49324 4278190080
0.43192673 328.10922 952.12048 4278190080
17.091866 835.69958 992.96124 4278190080
314.33655 308.42459 590.36481 4278190080
763.24127 793.19983 931.12457 4278190080
990.0387 139.79454 232.61815 4278190080
84.913719 316.83743 896.46277 4278190080
574.98224 786.96838 400.35971 4278190080
462.71179 364.64206 103.26575 4278190080
535.2439 112.2243 252.43129 4278190080
736.98828 29.281963 949.49774 4278190080
780.48151 29.71389 253.60695 4278190080
708.60205 46.805756 65.306541 4278190080
677.56329 361.1423 373.73114 4278190080
243.92807 100.38358 142.93098 4278190080
151.05266 66.42231 282.72552 4278190080
383.67081 151.33603 599.56299 4278190080
256.13358 726.3183 362.53134 4278190080
656.49329 165.03008 727.1734 4278190080
759.75903 700.27399 839.39771 4278190080
1012.1903 413.2623 868.67963 4278190080
937.68805 169.74382 898.39355 4278190080
167.295 878.34583 945.19928 4278190080
232.60155 531.90912 282.34161 4278190080
606.3327 775.83722 382.72519 4278190080
749.26367 926.88989 449.14749 4278190080
7.9892054 286.5607 600.48352 4278190080
607.55219 542.69427 302.80182 4278190080
970.0835 175.18755 467.83188 4278190080
673.2569 934.94659 144.10588 4278190080
488.6546 923.1369 557.36816 4278190080
333.33426 836.82495 727.112 4278190080
207.7278 1004.12 581.45782 4278190080
128.92709 212.72151 89.366982 4278190080
411.26871 819.0542 865.20422 4278190080
793.9939 544.31787 768.09406 4278190080
219.14137 552.30707 30.654776 4278190080
819.62488 135.85925 573.34906 4278190080
98.426712 81.942757 748.53656 4278190080
566.25861 755.19965 659.48315 4278190080
710.3645 219.85425 558.62012 4278190080
243.73265 553.18848 371.44507 4278190080
970.84467 760.91626 351.56503 4278190080
528.30249 889.84338 564.28656 4278190080
617.66949 277.11209 359.34073 4278190080
458.87366 47.105961 903.65857 4278190080
202.96776 266.24734 431.96567 4278190080
233.62253 61.87225 567.82495 4278190080
806.97156 160.29897 649.7677 4278190080
531.50818 726.55756 380.96732 4278190080
166.99132 412.92206 600.82159 4278190080
725.61139 656.65472 130.01006 4278190080
73.056473 603.49933 890.92633 4278190080
424.62149 107.80185 756.76971 4278190080
988.90802 725.47131 9.8817997 4278190080
324.24875 160.34499 56.987762 4278190080
203.90735 363.31274 323.23511 4278190080
635.87305 596.93524 385.10736 4278190080
179.69795 379.90683 545.40631 4278190080
829.46564 911.41498 247.96388 4278190080
186.43295 54.406307 660.88593 4278190080
787.25452 780.0177 293.54062 4278190080
917.26459 853.07422 897.03998 4278190080
784.19092 253.69568 1004.8419 4278190080
516.96063 218.60371 706.31317 4278190080
526.84247 542.85248 866.65814 4278190080
583.8302 746.75983 205.97089 4278190080
907.06531 358.63284 802.90613 4278190080
268.17267 538.33081 158.81299 4278190080
813.57898 343.79642 46.227974 4278190080
37.542858 530.22937 100.63428 4278190080
698.42877 293.48392 880.65198 4278190080
991.96942 186.74849 709.7262 4278190080
865.0094 970.93939 963.42188 4278190080
845.8512 463.90005 158.02559 4278190080
528.16437 990.74249 700.87805 4278190080
370.82251 550.57275 423.63788 4278190080
576.7934 433.63806 782.27075 4278190080
355.69955 701.81073 296.60153 4278190080
514.51257 491.38971 640.39795 4278190080
560.74054 528.93256 146.62733 4278190080
661.37482 203.36133 440.11124 4278190080
518.02679 171.33075 626.85974 4278190080
203.75301 12.340139 573.79913 4278190080
143.1749 858.19135 13.699224 4278190080
301.2005 362.35574 1004.4418 4278190080
1002.0786 733.17828 531.01447 4278190080
401.71643 285.97168 964.65253 4278190080
159.98717 641.6712 642.46326 4278190080
456.58871 132.18378 109.85294 4278190080
72.986664 692.92432 638.78546 4278190080
219.614 330.2991 842.14679 4278190080
659.72522 848.32593 1013.4775 4278190080
262.58499 28.07893 1.8177032 4278190080
836.38416 171.25381 860.00909 4278190080
850.08337 472.45432 198.36481 4278190080
830.52509 450.53287 931.54309 4278190080
337.53958 852.24927 193.51474 4278190080
278.19211 1012.2365 835.18597 4278190080
920.65533 444.82516 967.36975 4278190080
6.5082831 517.81183 636.29407 4278190080
645.29376 737.42584 966.59314 4278190080
463.44058 373.15109 790.91907 4278190080
452.91815 635.73608 818.99799 4278190080
454.73584 448.12021 990.25183 4278190080
290.74493 274.20358 438.70615 4278190080
489.10974 80.728683 889.23901 4278190080
396.6528 418.26828 717.48828 4278190080
590.16754 696.46039 705.72473 4278190080
401.35352 593.11572 126.54991 4278190080
344.72327 599.62402 644.36176 4278190080
981.01733 220.91777 357.7876 4278190080
923.61047 684.35834 730.93866 4278190080
690.52954 113.27651 342.67474 4278190080
485.52756 568.01239 790.79498 4278190080
451.77936 858.75726 40.998531 4278190080
890.48553 323.86703 121.72721 4278190080
755.72449 720.51984 539.99548 4278190080
449.21277 286.68741 212.45586 4278190080
130.93753 688.04095 805.57159 4278190080
257.48746 8.7641983 381.19559 4278190080
901.84918 989.78149 602.11334 4278190080
235.63678 889.39197 262.47174 4278190080
966.57544 555.92151 375.74826 4278190080
285.25018 17.449068 943.76062 4278190080
52.045155 469.22845 778.51794 4278190080
93.043686 335.71396 78.384941 4278190080
214.7709 67.438446 798.90479 4278190080
754.76636 516.65125 61.592186 4278190080
967.22223 647.58875 749.63312 4278190080
748.79382 905.07623 758.39734 4278190080
105.98941 782.92542 724.17883 4278190080
708.10278 1018.5622 589.5708 4278190080
970.57452 961.13763 121.49233 4278190080
322.32275 222.38783 138.94141 4278190080
242.08339 274.43298 608.16986 4278190080
1020.6013 367.47668 943.88379 4278190080
74.986244 582.24756 1011.3222 4278190080
873.89105 313.01395 503.97345 4278190080
935.48322 256.23618 127.56223 4278190080
661.11633 1005.03 8.6384315 4278190080
395.51364 87.019417 791.56384 4278190080
95.692474 795.12219 786.12604 4278190080
685.26331 741.69672 723.26367 4278190080
806.75562 40.019482 945.65149 4278190080
945.69702 282.10287 196.08447 4278190080
529.86688 278.70416 563.56116 4278190080
449.75064 353.69043 121.80872 4278190080
437.07288 203.58145 434.82266 4278190080
941.04633 115.06468 691.05884 4278190080
44.608555 776.18103 672.08887 4278190080
53.246986 147.69467 759.10828 4278190080
844.81085 243.38715 530.23047 4278190080
606.93683 928.65045 247.92719 4278190080
306.2005 711.40607 287.94666 4278190080
227.85201 633.10303 570.04956 4278190080
423.93646 138.96991 848.75372 4278190080
987.49762 588.72058 178.44414 4278190080
85.306351 1.7934232 382.0256 4278190080
520.12903 942.83978 497.09027 4278190080
187.18787 987.4483 249.27129 4278190080
859.27673 16.695301 396.96597 4278190080
594.38501 861.5061 640.35309 4278190080
100.61546 444.44296 545.00354 4278190080
348.54263 750.64349 232.40958 4278190080
636.48932 978.49548 865.51263 4278190080
182.53883 378.43195 1004.4825 4278190080
7.2925406 341.92957 569.20306 4278190080
185.73668 427.23593 570.99652 4278190080
567.76227 947.36493 489.83627 4278190080
40.852539 110.55281 453.28458 4278190080
290.12384 969.82953 469.97989 4278190080
687.08978 540.21454 307.48602 4278190080
303.4429 640.82996 751.92896 4278190080
848.44641 989.37262 478.57245 4278190080
56.85601 601.86188 433.06793 4278190080
922.36865 784.40076 811.49988 4278190080
902.8512 791.6933 129.42947 4278190080
448.05429 977.42993 556.66541 4278190080
1019.0508 521.1922 480.03033 4278190080
484.88708 562.04474 590.58313 4278190080
938.17163 852.16858 536.41266 4278190080
384.15155 515.25836 52.627197 4278190080
691.63757 818.70129 693.45715 4278190080
419.56653 643.14771 658.82977 4278190080
898.13898 700.00372 236.6917 4278190080
307.20694 598.37238 1021.0924 4278190080
94.706825 477.22357 788.78571 4278190080
224.13629 925.27783 742.21564 4278190080
780.8017 920.32861 239.40787 4278190080
236.83203 381.21573 801.45264 4278190080
827.41516 295.38736 629.62122 4278190080
339.82785 679.53894 120.87961 4278190080
392.45508 347.17648 939.58087 4278190080
61.912239 766.74298 558.72864 4278190080
720.742 640.88202 234.73235 4278190080
957.43372 948.08893 833.10474 4278190080
954.52612 18.795761 286.32828 4278190080
719.31183 242.93205 187.60612 4278190080
437.5275 1023.7338 83.934769 4278190080
676.93536 236.56578 465.15048 4278190080
454.388 39.980972 760.53784 4278190080
60.009232 379.80884 416.07678 4278190080
180.88884 772.26392 763.25323 4278190080
96.469734 834.17615 505.99625 4278190080
655.19836 530.91815 122.87825 4278190080
889.93066 464.35187 46.96719 4278190080
699.0354 394.87802 65.762947 4278190080
985.36371 90.189857 308.69501 4278190080
148.96982 527.71735 308.42877 4278190080
232.90459 180.65274 544.99457 4278190080
698.05505 635.04077 584.97552 4278190080
434.59293 695.04999 964.78436 4278190080
850.66974 875.93884 713.04828 4278190080
589.92297 972.40857 523.22437 4278190080
71.919205 603.60693 30.142548 4278190080
194.79745 469.5376 494.49442 4278190080
241.76465 144.573 889.37244 4278190080
307.52759 105.93669 979.56226 4278190080
616.2226 254.90651 483.27963 4278190080
924.65137 487.8111 663.93237 4278190080
445.6459 161.86618 274.97314 4278190080
6.6214252 596.45911 970.02313 4278190080
971.40576 423.12885 821.96198 4278190080
660.45404 1013.0518 770.37048 4278190080
159.67842 60.970997 349.97742 4278190080
189.82097 255.76845 819.51501 4278190080
684.31537 497.53308 964.08801 4278190080
549.68781 805.06067 46.024696 4278190080
505.25009 397.28329 300.93121 4278190080
988.52972 297.93466 788.74231 4278190080
628.46216 743.58057 950.60852 4278190080
903.43524 750.20197 523.06763 4278190080
849.45837 697.60779 946.19647 4278190080
647.42035 334.0618 935.24829 4278190080
393.79086 493.7402 996.21924 4278190080
743.76825 683.56116 227.98772 4278190080
539.28326 343.87656 725.52081 4278190080
479.37128 893.56439 506.58148 4278190080
525.396 374.81448 903.86481 4278190080
826.32721 339.34421 177.79944 4278190080
591.06952 967.80634 921.38 4278190080
517.67804 847.24164 647.58197 4278190080
16.745649 672.70001 321.18976 4278190080
962.94214 296.12036 655.25153 4278190080
874.19037 689.91119 124.99175 4278190080
846.40967 409.67947 808.55292 4278190080
50.397369 948.96271 128.42949 4278190080
775.91815 404.33401 1021.9938 4278190080
258.49966 929.72998 372.80832 4278190080
138.36446 732.05713 712.15253 4278190080
316.16391 299.12665 655.95886 4278190080
213.5439 816.80469 479.2005 4278190080
861.12585 833.55029 127.90052 4278190080
158.31563 772.49243 424.02087 4278190080
813.56714 622.6828 89.932083 4278190080
938.5589 445.09247 499.61154 4278190080
723.11188 495.48987 424.57428 4278190080
851.54132 247.40804 828.90826 4278190080
849.53522 505.90771 734.63824 4278190080
198.34354 644.27216 442.6954 4278190080
910.49609 960.4361 741.82202 4278190080
542.45496 149.97997 534.62671 4278190080
1021.6555 1011.1058 344.17703 4278190080
125.55601 145.42148 92.669456 4278190080
549.5769 958.98865 715.35229 4278190080
639.50897 873.54755 136.44476 4278190080
115.12051 572.65942 631.93463 4278190080
539.69482 400.20074 879.34265 4278190080
344.60309 225.73596 361.25037 4278190080
55.241329 424.0795 1005.5225 4278190080
497.93674 310.57556 941.95862 4278190080
215.75877 853.03058 67.938553 4278190080
750.3855 850.68604 55.044399 4278190080
70.562508 976.24207 200.46587 4278190080
163.23196 501.81894 135.45451 4278190080
878.58423 117.3279 1009.0021 4278190080
1015.029 232.44841 557.6615 4278190080
622.96362 772.14319 957.86224 4278190080
478.30627 92.746292 159.59818 4278190080
839.55664 147.98763 583.67767 4278190080
821.07916 645.92432 894.25323 4278190080
739.03778 861.68311 723.28381 4278190080
806.97632 588.0686 549.96985 4278190080
862.02075 658.6311 502.21188 4278190080
38.486591 821.8631 1004.0308 4278190080
173.9411 676.44733 97.358704 4278190080
158.94316 667.47632 329.80713 4278190080
716.60461 266.43997 77.950325 4278190080
650.46686 744.74628 170.69661 4278190080
810.06506 560.30292 318.68423 4278190080
369.74274 357.38208 964.60858 4278190080
239.99597 72.419853 802.29169 4278190080
963.27979 879.39618 366.36032 4278190080
489.2496 717.41687 0.9914279 4278190080
991.46149 755.9035 822.85449 4278190080
971.49231 929.8446 475.30182 4278190080
44.851009 64.787758 118.77818 4278190080
374.65814 781.3924 385.21814 4278190080
452.60846 407.85925 105.96442 4278190080
623.30505 193.92432 666.26733 4278190080
941.98932 563.66705 1023.6494 4278190080
882.5979 803.66302 72.069275 4278190080
660.88959 742.94275 951.46545 4278190080
3.2499042 208.19238 644.88232 4278190080
4.2413321 175.65387 376.78583 4278190080
827.09583 123.14618 282.63043 4278190080
278.39767 167.99719 347.41818 4278190080
397.17584 542.65533 104.81059 4278190080
782.39398 995.26379 512.66986 4278190080
888.3584 594.56885 706.59418 4278190080
530.62573 512.55817 246.2612 4278190080
530.27521 371.15604 25.92421 4278190080
602.34448 8.0456238 768.867 4278190080
529.80994 11.295527 977.05939 4278190080
150.69226 15.53686 128.71324 4278190080
527.47809 842.63269 251.85942 4278190080
810.10852 97.030373 419.8566 4278190080
133.52672 494.20621 962.5119 4278190080
238.3373 252.60022 933.7757 4278190080
751.00714 116.95864 504.34454 4278190080
433.60132 647.58441 1016.9026 4278190080
679.86249 153.85957 364.05872 4278190080
705.78674 756.20404 372.10434 4278190080
450.65372 262.01395 383.39984 4278190080
403.71307 412.70621 398.93671 4278190080
532.42633 940.18433 217.56941 4278190080
784.28577 726.29285 314.59979 4278190080
180.14236 859.81952 808.80603 4278190080
118.65429 74.15683 37.406227 4278190080
28.429979 825.164 154.36487 4278190080
532.77454 234.7653 801.94928 4278190080
525.67719 914.62781 955.80884 4278190080
889.7359 596.41455 688.01288 4278190080
237.84023 23.068258 950.02679 4278190080
621.24005 426.78134 338.733 4278190080
1020.1768 959.2077 254.91731 4278190080
213.7462 719.49341 981.21014 4278190080
528.34601 899.6358 817.02966 4278190080
313.15201 1018.2901 891.18652 4278190080
350.55823 22.720068 692.35046 4278190080
504.9231 555.49457 927.11578 4278190080
282.87238 57.171761 817.74359 4278190080
214.68121 946.90765 390.15814 4278190080
902.69409 160.74786 413.22641 4278190080
828.72089 781.98792 840.00775 4278190080
143.45392 778.16473 775.21545 4278190080
398.37122 991.91095 470.70886 4278190080
355.58136 496.25693 346.34467 4278190080
148.61104 809.40894 340.63474 4278190080
15.797541 135.96716 363.3548 4278190080
708.14801 640.89026 918.84937 4278190080
611.26379 923.76263 976.02118 4278190080
405.00742 114.44384 898.92877 4278190080
795.16559 1017.1379 35.67667 4278190080
184.39197 821.85883 817.66461 4278190080
0.39970922 965.31274 571.82935 4278190080
775.61511 339.68399 539.7403 4278190080
222.32399 695.26532 11.997232 4278190080
568.66864 843.8764 821.40619 4278190080
909.30341 859.67395 957.37335 4278190080
248.6582 543.82196 574.26361 4278190080
143.5076 131.08577 474.02625 4278190080
95.528748 536.0932 588.47009 4278190080
994.45752 307.25873 581.60803 4278190080
6.1342163 491.6507 379.46683 4278190080
823.79883 492.05042 320.77957 4278190080
371.62817 243.66554 660.46356 4278190080
911.36847 465.98953 331.72891 4278190080
923.36572 10.658188 151.60529 4278190080
720.77185 919.96161 1011.2792 4278190080
654.1452 144.61978 531.1012 4278190080
204.40883 288.12738 662.18695 4278190080
678.43506 383.65613 174.28012 4278190080
242.90515 354.11368 481.53885 4278190080
824.51312 360.24789 973.18958 4278190080
179.97998 160.04672 441.23999 4278190080
500.75958 531.67493 684.90552 4278190080
137.22313 419.04337 126.89507 4278190080
468.95206 318.40909 137.55325 4278190080
620.55731 15.180954 33.514835 4278190080
607.83655 669.32617 178.13463 4278190080
114.93772 873.73499 466.26202 4278190080
777.12463 528.17004 849.91815 4278190080
951.40479 771.0752 180.03183 4278190080
408.94363 571.58838 540.27972 4278190080
358.13321 751.56836 700.32648 4278190080
799.37317 228.32793 208.00136 4278190080
460.27872 365.55106 627.04474 4278190080
587.17377 834.50311 945.4538 4278190080
724.72705 431.06042 960.63477 4278190080
758.24188 14.896988 605.96094 4278190080
936.37653 129.83472 455.69595 4278190080
378.63852 906.95935 983.86603 4278190080
204.55666 834.36414 730.94122 4278190080
384.5885 219.3078 278.52957 4278190080
924.86823 577.44098 6.0979276 4278190080
601.19464 352.81418 234.42584 4278190080
809.19604 813.0929 599.97693 4278190080
412.24075 376.26669 410.48001 4278190080
333.69458 76.993729 841.54047 4278190080
270.32935 835.2356 856.43744 4278190080
876.29028 747.61212 986.27216 4278190080
307.98621 102.25062 869.23151 4278190080
267.85223 306.80728 679.59564 4278190080
998.79346 691.39575 898.90344 4278190080
253.32301 592.26398 452.34445 4278190080
259.42093 169.45865 805.15863 4278190080
493.8468 978.65466 594.25159 4278190080
69.823692 366.89542 970.51825 4278190080
480.30368 700.58997 23.511978 4278190080
297.84412 970.91931 858.74756 4278190080
130.28156 823.20959 582.35968 4278190080
92.553696 107.19582 684.61029 4278190080
961.78522 375.04803 991.4176 4278190080
617.38086 349.84149 658.81335 4278190080
492.2843 603.16449 227.07733 4278190080
944.62878 862.58545 396.53598 4278190080
725.78741 332.43222 351.19064 4278190080
296.03897 402.25592 718.08606 4278190080
242.55724 882.55963 394.67606 4278190080
266.06921 156.40373 341.5954 4278190080
100.81679 286.6853 140.80499 4278190080
683.17645 379.23898 248.00082 4278190080
343.78677 317.02417 623.04889 4278190080
311.20438 934.40503 972.89032 4278190080
970.0177 402.68936 552.05487 4278190080
173.09506 323.31815 390.64029 4278190080
569.63104 25.10556 723.07251 4278190080
920.82166 321.14453 101.32841 4278190080
614.90778 563.70178 983.888 4278190080
1009.5838 829.771 116.29175 4278190080
327.1792 930.58777 402.97705 4278190080
467.98419 589.76422 782.216 4278190080
715.98499 933.55103 75.240204 4278190080
315.03387 220.7554 1009.6453 4278190080
263.92422 166.77313 388.33463 4278190080
815.97906 339.86819 711.65277 4278190080
182.61934 909.49927 736.7583 4278190080
905.69183 806.32092 33.902847 4278190080
1007.0203 397.22867 597.60461 4278190080
966.90826 382.81247 403.37558 4278190080
59.200016 709.99164 309.96335 4278190080
462.17706 153.97586 899.7276 4278190080
220.39308 869.96088 809.27863 4278190080
295.63327 160.99475 6.0340481 4278190080
281.27853 424.91898 172.80719 4278190080
669.61316 216.89806 512.67542 4278190080
357.2659 399.5174 398.17462 4278190080
70.024193 281.20923 180.49554 4278190080
103.92704 264.22949 577.72418 4278190080
701.53168 207.13776 960.53668 4278190080
80.907249 266.33777 646.52832 4278190080
390.87061 728.51483 800.50421 4278190080
266.59821 948.9079 646.46509 4278190080
51.876854 220.54118 807.45984 4278190080
57.910904 501.81973 208.37878 4278190080
230.71809 147.43286 425.27686 4278190080
743.39349 504.69873 824.79425 4278190080
117.5681 574.72296 82.003479 4278190080
298.06363 678.64996 346.23297 4278190080
875.78784 356.18164 553.37073 4278190080
812.32452 437.0889 819.7085 4278190080
434.85284 827.95947 524.22333 4278190080
211.35704 70.557716 449.13126 4278190080
857.82208 122.43457 669.67242 4278190080
641.28192 180.34547 147.49216 4278190080
849.66071 411.06357 294.92502 4278190080
250.93755 130.45705 799.62378 4278190080
51.731792 248.02515 350.34668 4278190080
133.73528 546.08881 4.9966726 4278190080
479.96826 397.87662 361.17831 4278190080
9.3389835 186.20114 798.26721 4278190080
829.04749 621.05402 602.22668 4278190080
329.27084 832.41107 672.78442 4278190080
778.4021 666.23315 795.21899 4278190080
424.07452 283.51508 975.56445 4278190080
571.56665 109.17577 362.62802 4278190080
866.4917 360.11331 493.08508 4278190080
642.11542 411.84512 741.11023 4278190080
992.4621 545.58038 263.19901 4278190080
997.4588 1.5486398 661.07562 4278190080
334.63712 10.887623 847.27679 4278190080
108.9043 839.93512 444.33078 4278190080
711.13098 145.20595 252.74181 4278190080
359.91544 923.60803 918.97498 4278190080
131.13441 323.68253 178.49002 4278190080
82.698875 895.24921 287.66577 4278190080
445.3269 737.74084 647.77911 4278190080
938.41199 355.85629 35.624214 4278190080
655.52222 324.31842 581.20459 4278190080
918.72119 297.77722 582.75323 4278190080
555.79681 632.41431 593.64087 4278190080
379.07358 741.3186 409.57599 4278190080
823.40436 428.44965 554.78192 4278190080
52.146149 788.36505 454.38995 4278190080
971.12109 919.49945 778.07245 4278190080
125.61112 1002.1984 649.32166 4278190080
413.27692 423.52524 363.06253 4278190080
37.056007 337.93723 718.91882 4278190080
72.680222 993.45941 19.237265 4278190080
653.88483 888.1806 317.0145 4278190080
212.63808 419.97739 949.42883 4278190080
806.27893 799.05096 666.74744 4278190080
191.85492 598.45532 71.197067 4278190080
746.63684 650.60144 859.56213 4278190080
177.02679 597.72253 755.06158 4278190080
955.09924 723.33368 733.25995 4278190080
580.42096 112.61057 132.78517 4278190080
943.48352 149.66658 470.72238 4278190080
638.40234 222.3468 440.18179 4278190080
657.63959 876.23163 304.36237 4278190080
974.65405 64.86969 724.33972 4278190080
900.08289 871.14862 499.39072 4278190080
542.83032 39.003551 73.846008 4278190080
614.0274 785.64038 724.44745 4278190080
449.58951 962.66718 298.17001 4278190080
180.65109 893.76648 1021.5037 4278190080
913.91101 450.18741 110.11423 4278190080
22.696186 369.6709 259.78082 4278190080
493.41858 1008.0732 482.12759 4278190080
933.60034 641.71283 334.35922 4278190080
213.96271 592.36694 399.22891 4278190080
938.30249 468.4498 246.37756 4278190080
413.69318 1011.2802 285.3811 4278190080
487.53918 601.3075 47.021503 4278190080
187.98663 26.89702 1009.6887 4278190080
486.15665 207.54811 879.45514 4278190080
483.66031 97.459137 305.64258 4278190080
593.77454 120.15532 675.31348 4278190080
853.55536 613.57391 659.38672 4278190080
311.68295 523.17426 277.09955 4278190080
646.04218 737.13696 869.46649 4278190080
21.271112 651.43939 313.91629 4278190080
267.64868 41.132568 301.19641 4278190080
553.02979 528.67175 902.50391 4278190080
600.05127 716.65839 929.40094 4278190080
585.73999 178.81502 112.94906 4278190080
441.19513 662.47534 210.40819 4278190080
746.83771 232.24985 330.56351 4278190080
398.15118 61.805202 944.13739 4278190080
33.53788 373.48816 443.31161 4278190080
310.63742 1019.5303 156.44856 4278190080
156.10391 16.801458 807.88794 4278190080
470.0202 284.45013 849.02051 4278190080
771.21661 837.47992 353.69229 4278190080
649.72052 413.53119 46.35067 4278190080
555.12146 999.27118 225.1657 4278190080
668.07056 416.46628 887.64099 4278190080
878.4787 139.30397 95.890862 4278190080
185.04224 537.45514 157.69606 4278190080
105.17964 570.99304 531.1842 4278190080
548.49127 881.63043 526.71454 4278190080
704.93982 13.73437 543.51605 4278190080
488.82779 483.75458 827.96613 4278190080
313.84833 230.97116 641.44604 4278190080
667.54065 880.69171 30.977232 4278190080
713.8913 411.81317 6.2483826 4278190080
939.05701 55.883705 422.71466 4278190080
802.698 934.36243 562.01862 4278190080
898.58887 95.404678 75.473785 4278190080
32.284916 200.58432 646.4668 4278190080
563.46912 749.07556 504.09729 4278190080
66.183708 430.01541 517.83167 4278190080
609.69971 918.8432 1001.5862 4278190080
413.66589 208.69156 208.55737 4278190080
31.11194 876.23218 65.249069 4278190080
62.089172 566.12347 477.06226 4278190080
68.337555 481.18045 532.94592 4278190080
491.05222 259.87842 443.30838 4278190080
29.070856 134.46727 538.71307 4278190080
104.54464 166.7522 739.29736 4278190080
751.01147 730.22131 464.37296 4278190080
231.10873 796.40503 894.38837 4278190080
748.94037 382.10477 789.23163 4278190080
726.52661 795.77063 997.92316 4278190080
935.08398 826.88257 850.15533 4278190080
1000.333 888.9718 392.27878 4278190080
453.39526 957.30933 873.45923 4278190080
986.34125 424.36154 109.33766 4278190080
405.6496 453.4324 243.80493 4278190080
944.36267 557.97705 410.55713 4278190080
659.66003 284.98849 116.77846 4278190080
100.03301 516.09723 913.18347 4278190080
994.42139 241.03761 271.28827 4278190080
759.65302 967.56421 43.058922 4278190080
733.57617 878.64813 869.94153 4278190080
559.73151 854.9812 734.91327 4278190080
952.01025 284.37646 668.2226 4278190080
801.46948 246.7177 68.58416 4278190080
910.80719 652.36731 522.01654 4278190080
130.61211 572.72998 55.993607 4278190080
541.16925 208.39003 340.98212 4278190080
657.94769 308.42303 857.07935 4278190080
547.13116 278.84445 74.116943 4278190080
818.41943 14.497438 17.681141 4278190080
861.47833 748.07361 896.32928 4278190080
707.41986 283.80508 727.31049 4278190080
418.33316 211.81535 1011.687 4278190080
62.555782 1013.2849 234.40465 4278190080
131.13994 900.09204 886.77197 4278190080
653.15649 6.7041411 435.50192 4278190080
709.15009 547.87335 643.89197 4278190080
26.132221 181.82104 952.315 4278190080
883.21155 728.95221 207.15944 4278190080
957.32849 523.37164 221.65688 4278190080
975.00964 360.85004 969.73047 4278190080
847.33893 44.269897 229.53555 4278190080
550.64941 462.60306 441.35092 4278190080
538.33636 525.15887 430.63577 4278190080
772.74103 656.29877 306.72781 4278190080
635.513 285.45529 313.43198 4278190080
47.014938 994.60541 861.30536 4278190080
690.90692 1020.7376 19.126389 4278190080
619.22192 879.94922 748.07861 4278190080
826.38135 813.27771 247.45029 4278190080
24.03824 764.28735 608.30029 4278190080
993.76874 587.62628 652.57019 4278190080
199.30428 114.27573 91.173271 4278190080
640.65521 652.61212 616.33209 4278190080
47.290981 401.35315 248.63091 4278190080
354.0188 12.866161 534.08618 4278190080
667.45074 59.8811 504.69162 4278190080
504.7561 750.78802 501.42923 4278190080
523.88251 346.00992 357.37842 4278190080
247.96112 148.39128 146.65613 4278190080
495.41141 172.42952 910.94348 4278190080
79.7117 142.19823 474.56976 4278190080
732.28192 341.5025 588.84546 4278190080
823.4552 982.15771 217.4576 4278190080
415.78729 5.4486842 618.81073 4278190080
664.41821 359.4675 631.67694 4278190080
174.50439 2.9182625 691.55804 4278190080
679.19598 507.67438 418.34601 4278190080
156.62523 7.5568671 764.35596 4278190080
514.00366 255.51797 912.74719 4278190080
660.65979 750.92938 61.176731 4278190080
547.60327 830.64105 203.37497 4278190080
1022.173 538.92297 544.8775 4278190080
587.01849 338.37817 503.03519 4278190080
804.47607 754.16547 508.48386 4278190080
399.28683 394.58365 867.95135 4278190080
6.9637518 569.08807 870.86963 4278190080
698.52179 224.28404 354.54398 4278190080
92.86779 380.90927 362.10086 4278190080
857.22375 894.91296 617.61884 4278190080
745.97095 531.57275 344.54822 4278190080
807.14771 55.175972 151.18929 4278190080
1010.5226 53.348976 690.1123 4278190080
531.40015 640.36743 4.490438 4278190080
10.435306 420.84354 758.65588 4278190080
518.91919 820.13037 129.23955 4278190080
362.87051 827.09412 698.32758 4278190080
209.74014 501.61591 922.61163 4278190080
564.28412 594.4837 279.5209 4278190080
926.38495 427.70743 150.43385 4278190080
520.00378 149.67838 682.00659 4278190080
864.552 956.82605 737.18256 4278190080
1015.7413 943.34869 790.53149 4278190080
681.85358 450.74884 406.89899 4278190080
686.34399 461.18414 827.74249 4278190080
420.99991 980.10333 623.87292 4278190080
550.23944 318.97385 426.96701 4278190080
224.56705 528.71399 928.58295 4278190080
123.17869 68.9981 499.06662 4278190080
402.69962 995.38306 926.77405 4278190080
553.13348 491.3869 52.452404 4278190080
211.14003 331.9389 1009.2784 4278190080
948.32257 323.68024 928.6272 4278190080
714.85413 1005.5338 355.37601 4278190080
97.75309 667.87781 816.56018 4278190080
925.49561 64.877747 772.66345 4278190080
525.36853 615.11719 67.637299 4278190080
952.33551 839.68427 596.35126 4278190080
856.91846 962.86298 665.34937 4278190080
331.98505 341.56256 636.73242 4278190080
234.75909 894.69598 104.11932 4278190080
287.21149 81.836044 436.05823 4278190080
272.48996 6.1586304 759.73846 4278190080
177.11713 721.01276 741.27228 4278190080
532.49316 818.76581 385.15012 4278190080
325.05328 720.26147 450.02786 4278190080
73.716751 221.62996 41.145065 4278190080
141.35403 149.96548 880.82935 4278190080
737.70532 1006.884 819.69226 4278190080
379.05469 314.86902 137.25484 4278190080
1015.7871 549.62811 7.9508557 4278190080
95.906441 836.8396 89.786903 4278190080
531.96466 85.329536 95.945534 4278190080
267.70316 262.44666 816.95825 4278190080
1008.9754 794.93982 611.72412 4278190080
370.12552 95.993088 307.98553 4278190080
820.15338 169.70984 529.61548 4278190080
861.29846 311.06387 679.58099 4278190080
718.12775 24.769184 662.46497 4278190080
513.82007 403.82385 977.33392 4278190080
651.07489 395.61096 502.96204 4278190080
659.02576 491.5174 315.80161 4278190080
748.81268 1023.4821 401.13116 4278190080
844.75818 267.18524 663.57782 4278190080
637.71643 252.16064 434.51761 4278190080
225.44057 622.28613 530.51068 4278190080
533.42609 418.43951 700.22052 4278190080
39.041615 255.73795 1011.2844 4278190080
718.62262 973.86572 12.053599 4278190080
357.08755 463.68576 415.87744 4278190080
310.42151 90.760666 811.4884 4278190080
813.38354 749.78644 279.00583 4278190080
105.18516 474.59906 278.48792 4278190080
506.31631 295.35727 545.67316 4278190080
145.89413 933.07373 797.8338 4278190080
580.41174 134.51428 396.11993 4278190080
86.922462 667.94037 814.55945 4278190080
787.14301 706.98199 46.297409 4278190080
774.42743 401.60461 1020.1631 4278190080
786.48102 758.69214 459.84888 4278190080
178.35847 45.113663 550.60956 4278190080
989.84692 858.49719 276.39597 4278190080
244.85272 963.68237 750.99506 4278190080
523.34064 445.99866 22.352293 4278190080
45.013794 591.89282 955.42603 4278190080
842.8476 148.30455 65.940285 4278190080
214.96751 235.22701 733.88068 4278190080
5.526978 1022.37 416.86267 4278190080
51.824387 772.79742 818.46729 4278190080
47.987511 535.27844 553.15942 4278190080
507.8364 713.6369 598.27313 4278190080
34.445957 679.48383 432.77029 4278190080
310.84192 924.33655 372.45264 4278190080
37.836967 423.67719 818.45129 4278190080
60.189259 468.69098 386.34412 4278190080
1015.6153 287.53854 534.64868 4278190080
57.55555 502.50607 769.87567 4278190080
791.43622 508.03305 768.24567 4278190080
184.29889 559.85742 517.04309 4278190080
1002.7662 607.84497 28.321539 4278190080
531.9256 91.681358 741.95844 4278190080
106.19872 126.12731 397.44226 4278190080
538.96899 436.96924 297.77878 4278190080
911.42169 474.80621 721.45593 4278190080
705.87299 534.99548 166.14693 4278190080
68.217087 526.61072 453.68549 4278190080
602.86572 584.16626 956.19159 4278190080
348.74142 351.60251 440.22461 4278190080
92.987099 535.90137 1000.082 4278190080
610.03021 514.66754 583.927 4278190080
638.35175 22.593166 675.60834 4278190080
356.31018 128.79189 801.73566 4278190080
753.75244 667.76086 214.70493 4278190080
27.531216 555.18256 689.51111 4278190080
748.98718 237.05554 200.50659 4278190080
915.13409 305.27261 727.11731 4278190080
344.81958 908.13837 287.28363 4278190080
277.01117 232.87979 638.88611 4278190080
717.23578 325.86688 150.78752 4278190080
693.31781 935.89709 665.45508 4278190080
253.24483 550.24884 688.04822 4278190080
928.85321 906.55902 816.84015 4278190080
706.58887 636.31146 460.60101 4278190080
921.29376 663.84265 1015.7836 4278190080
586.80493 388.82983 228.83911 4278190080
787.31152 279.96396 534.11176 4278190080
490.42883 624.78357 418.25012 4278190080
777.71246 901.79468 651.12994 4278190080
392.5986 595.03046 976.99683 4278190080
543.38611 264.3483 888.89392 4278190080
184.84119 517.59314 415.14273 4278190080
872.88947 422.44632 297.70175 4278190080
665.72955 105.0352 934.01324 4278190080
102.33058 2.3289928 573.8559 4278190080
94.114151 589.13391 962.68573 4278190080
322.95328 352.44543 218.64967 4278190080
857.065 842.87427 843.43323 4278190080
251.31512 596.58673 721.22791 4278190080
902.44507 989.1853 292.25839 4278190080
855.44183 508.57144 556.60669 4278190080
720.33575 693.41266 50.199825 4278190080
111.47851 542.30206 472.64615 4278190080
409.18027 184.03163 577.68134 4278190080
319.19348 286.36221 580.01038 4278190080
893.04938 380.47638 145.14426 4278190080
831.73511 703.42963 497.58969 4278190080
26.384777 536.49463 316.46396 4278190080
869.81799 787.80975 913.05066 4278190080
567.0459 666.25482 878.23602 4278190080
859.30432 497.69669 362.80746 4278190080
391.91101 194.03244 32.220093 4278190080
442.11084 305.51096 574.52216 4278190080
914.75696 714.69122 758.55377 4278190080
468.43835 9.8847151 20.916019 4278190080
24.4487 902.93408 401.3924 4278190080
169.59296 710.66919 80.822029 4278190080
667.18268 737.05396 617.31665 4278190080
983.64661 582.87195 381.12646 4278190080
872.69727 125.91788 23.381268 4278190080
726.93329 985.22217 521.07794 4278190080
65.740768 353.13321 715.11041 4278190080
97.960861 795.24402 1020.6213 4278190080
672.48303 686.00104 711.31256 4278190080
407.03683 130.43936 721.19727 4278190080
427.95285 154.88806 600.13135 4278190080
829.34521 324.48102 286.80057 4278190080
910.1673 991.6637 1023.8545 4278190080
503.48395 951.3103 582.7265 4278190080
884.61041 800.00757 708.64435 4278190080
907.99164 502.94089 669.86658 4278190080
405.06961 568.68164 1022.9998 4278190080
96.179993 666.64252 794.24377 4278190080
92.801338 315.12555 456.24478 4278190080
804.11389 722.16235 586.68414 4278190080
501.31119 126.11522 741.5722 4278190080
77.442558 955.46045 42.053242 4278190080
364.24313 841.62775 9.716917 4278190080
364.09763 321.11166 961.02722 4278190080
946.8241 181.72208 737.03479 4278190080
631.46851 65.713737 215.97565 4278190080
277.33502 470.78336 784.65729 4278190080
276.33478 566.96332 427.29984 4278190080
46.578545 659.76465 742.42535 4278190080
502.82333 439.87857 440.58774 4278190080
65.507484 941.18976 566.70294 4278190080
807.07971 1018.6323 498.16339 4278190080
849.13293 358.87546 315.79114 4278190080
858.84985 722.97308 636.90277 4278190080
795.87708 645.79724 818.62488 4278190080
508.91183 253.26569 884.33862 4278190080
724.88745 530.60071 331.12195 4278190080
485.54477 806.93549 898.08533 4278190080
912.8446 853.51404 533.84998 4278190080
631.26996 332.33737 973.72858 4278190080
47.857693 397.84485 890.91833 4278190080
614.56061 180.92456 885.55066 4278190080
88.724037 6.0574937 220.42612 4278190080
404.51517 864.90735 943.39923 4278190080
17.417961 636.78442 565.19641 4278190080
836.04285 121.69623 818.4621 4278190080
696.38147 846.58368 325.06284 4278190080
3.503406 308.12848 107.99834 4278190080
901.58868 196.9731 961.51239 4278190080
411.43869 828.24304 269.84976 4278190080
361.16724 876.10077 667.69458 4278190080
228.08557 466.66138 848.61914 4278190080
89.63623 555.38544 854.67664 4278190080
310.06235 959.90057 695.58398 4278190080
229.46156 977.31854 308.36841 4278190080
794.65796 789.36139 430.06464 4278190080
589.12012 461.74283 252.64835 4278190080
914.18292 465.24625 560.77686 4278190080
1022.1813 342.83493 757.74994 4278190080
959.69366 754.27362 561.99298 4278190080
205.54341 91.440857 414.09372 4278190080
873.23804 319.52643 880.75513 4278190080
697.85718 409.16266 412.14053 4278190080
528.53381 719.22498 348.04114 4278190080
200.11783 948.68658 301.35968 4278190080
508.48624 719.34454 66.721046 4278190080
938.5509 284.46466 528.46387 4278190080
167.19922 174.6476 993.71008 4278190080
727.97601 172.82887 312.54504 4278190080
461.72595 108.52254 42.818665 4278190080
1023.7189 314.06595 134.25952 4278190080
413.81268 163.30396 453.78595 4278190080
270.56781 861.16113 862.94861 4278190080
682.70831 365.69495 558.17358 4278190080
6.7494578 565.81281 482.86017 4278190080
308.10913 50.299019 178.20473 4278190080
374.83017 988.84991 462.66937 4278190080
903.29407 132.0491 637.31696 4278190080
873.00415 860.02515 810.14587 4278190080
161.54919 297.75113 918.6684 4278190080
204.36786 297.47006 208.73434 4278190080
338.62738 711.28271 372.0383 4278190080
792.41333 981.85052 209.19942 4278190080
631.36194 640.5589 574.89435 4278190080
165.53555 647.30835 116.70715 4278190080
648.39575 955.41748 167.00616 4278190080
826.60046 306.24762 131.85606 4278190080
265.26984 185.54167 263.90515 4278190080
902.58679 34.54583 99.930321 4278190080
688.73267 196.09503 397.68143 4278190080
583.40106 400.46289 695.15149 4278190080
792.13544 739.09027 382.43423 4278190080
140.17371 507.5036 340.28476 4278190080
349.37311 114.86555 980.84363 4278190080
924.26746 280.40109 604.15198 4278190080
16.974623 928.79681 535.5694 4278190080
183.98079 731.39728 841.81708 4278190080
315.83685 996.66711 3.3587265 4278190080
579.742 875.25391 37.904556 4278190080
679.6723 539.98663 233.99959 4278190080
53.353764 99.38768 634.46246 4278190080
748.50525 891.52307 349.55276 4278190080
106.93951 7.6967912 857.0564 4278190080
447.22427 357.06992 971.92194 4278190080
404.06793 257.33737 228.32303 4278190080
1008.2199 274.31201 133.11986 4278190080
519.78931 458.29279 864.51715 4278190080
337.60638 774.12964 837.18427 4278190080
340.96509 329.87164 688.43817 4278190080
378.86966 1009.544 204.42477 4278190080
612.86926 38.897743 303.81247 4278190080
223.33173 787.40302 171.33554 4278190080
572.88446 894.34253 179.03233 4278190080
405.94086 317.5668 536.10223 4278190080
353.86279 721.6347 793.43964 4278190080
582.18579 705.85461 43.751633 4278190080
715.30566 201.64394 502.04443 4278190080
555.82281 539.25031 252.17407 4278190080
369.00705 880.21539 582.04572 4278190080
33.445229 235.08507 567.58972 4278190080
