# .PCD v0.7 - Point Cloud Data file format
VERSION 0.7
FIELDS x y z rgb
SIZE 4 4 4 4
TYPE F F F U
COUNT 1 1 1 1
WIDTH 1176
HEIGHT 1
VIEWPOINT 0 0 0 1 0 0 0
POINTS 1176
DATA ascii
451.26862 503.26196 315.14557 4278190080
582.70367 953.53937 573.04187 4278190080
921.99707 715.87225 383.06232 4278190080
146.66612 726.9024 863.71436 4278190080
241.80698 515.03339 557.68451 4278190080
547.30157 432.19821 381.29083 4278190080
418.05127 646.47308 187.36378 4278190080
1002.2724 909.8316 617.53802 4278190080
537.51196 296.32333 962.13202 4278190080
689.64929 369.1236 149.81952 4278190080
1002.6797 820.39221 653.08148 4278190080
293.82529 379.09592 582.62085 4278190080
866.86719 277.09302 274.49313 4278190080
225.9295 423.75912 1001.3955 4278190080
65.64386 665.5661 492.42889 4278190080
623.32837 188.86768 924.62708 4278190080
1004.6192 606.91895 547.10022 4278190080
167.98299 585.19135 432.93179 4278190080
785.521 98.7033 729.25513 4278190080
723.65302 788.3526 74.378731 4278190080
873.47253 767.03229 894.771 4278190080
502.55402 36.85759 249.8669 4278190080
61.174873 903.72479 526.9599 4278190080
335.668 105.65427 950.71906 4278190080
313.06351 171.29813 592.28516 4278190080
805.49237 794.62653 781.15283 4278190080
706.11951 775.24573 364.07178 4278190080
229.2197 943.2287 949.26312 4278190080
662.15149 704.74969 23.966425 4278190080
367.40662 404.40271 812.31903 4278190080
441.78534 253.87523 555.35132 4278190080
312.5563 756.42926 592.20892 4278190080
562.42322 817.60413 471.93365 4278190080
65.383133 129.27213 577.58795 4278190080
1016.1022 442.33563 748.88605 4278190080
584.38733 223.82803 519.51257 4278190080
341.54019 929.94751 270.75827 4278190080
705.61194 135.16721 189.98698 4278190080
630.87506 797.31873 894.73669 4278190080
654.84149 140.72531 275.13937 4278190080
443.16049 582.51068 529.01459 4278190080
998.51184 895.06696 261.44388 4278190080
566.7207 433.4902 55.048 4278190080
14.654389 498.87332 184.32013 4278190080
592.24231 490.97552 626.65576 4278190080
317.12839 51.362858 850.48383 4278190080
836.64099 392.90305 756.43134 4278190080
83.399246 74.514992 891.59851 4278190080
273.38623 705.39008 664.91724 4278190080
144.12291 336.23157 805.64252 4278190080
419.26227 779.39209 364.1532 4278190080
948.27692 753.90387 235.22018 4278190080
185.72075 296.6246 668.71039 4278190080
240.76875 311.27899 143.58372 4278190080
425.0889 903.5213 634.5592 4278190080
27.744656 196.64972 685.92212 4278190080
878.22845 9.2906933 54.825127 4278190080
610.65979 92.689941 129.34012 4278190080
478.25827 366.07617 834.73016 4278190080
119.1755 510.19907 146.96176 4278190080
924.81805 929.46136 926.35382 4278190080
264.97122 853.73822 656.25769 4278190080
500.19144 15.459 952.88232 4278190080
144.90181 256.22775 240.16133 4278190080
288.48553 681.31665 119.68266 4278190080
923.04474 709.06128 316.3324 4278190080
584.96686 563.28973 325.62308 4278190080
639.79199 149.94952 418.31302 4278190080
769.13208 628.20782 784.38922 4278190080
579.8623 747.3833 270.58829 4278190080
726.82404 648.20135 176.04964 4278190080
629.17786 913.17255 5.7878757 4278190080
261.43561 389.36398 21.246876 4278190080
190.31793 534.26581 277.47464 4278190080
430.47925 822.75134 958.79126 4278190080
550.16193 721.79608 643.8526 4278190080
866.49432 282.76297 183.14232 4278190080
168.11737 922.55493 333.09183 4278190080
586.43042 667.68707 961.29962 4278190080
346.81958 223.54935 684.68292 4278190080
617.4079 950.37341 308.88428 4278190080
793.45752 555.55127 198.05684 4278190080
799.24536 816.98688 587.42084 4278190080
820.49225 1007.3048 97.68663 4278190080
73.966881 413.78406 920.43799 4278190080
8.758152 963.94598 618.23407 4278190080
652.61072 806.44031 900.99707 4278190080
835.75305 974.55768 799.552 4278190080
144.84488 536.98804 443.23904 4278190080
82.144524 883.80768 666.78839 4278190080
766.82745 477.21552 593.1618 4278190080
51.711723 246.67302 124.71307 4278190080
249.76855 21.918392 941.69995 4278190080
837.18939 842.41064 925.00476 4278190080
934.87604 916.3775 314.78882 4278190080
831.31396 925.13568 254.7348 4278190080
425.54807 553.7464 37.175079 4278190080
302.5451 365.49945 1011.7327 4278190080
78.097092 510.34433 524.72076 4278190080
521.33612 592.48883 384.52844 4278190080
164.12454 335.31631 861.74396 4278190080
757.28632 387.02802 84.416969 4278190080
881.99939 636.79657 106.33537 4278190080
799.69934 449.98596 948.74603 4278190080
700.7041 360.86197 841.12354 4278190080
1015.4929 168.17596 742.25922 4278190080
246.22772 593.724 272.00562 4278190080
283.4028 896.2691 637.50507 4278190080
271.13553 974.36621 123.84937 4278190080
795.85632 471.70236 716.3382 4278190080
156.38477 635.8269 27.654526 4278190080
1018.1287 369.11322 414.68256 4278190080
78.5457 227.11264 27.479137 4278190080
184.88106 2.8119922 477.46509 4278190080
109.62708 703.51611 838.32709 4278190080
950.75061 695.00903 1006.5031 4278190080
669.00983 941.23676 576.22705 4278190080
941.01544 200.63956 448.49622 4278190080
554.52045 471.77509 398.86243 4278190080
678.36981 243.63144 870.56482 4278190080
370.70804 400.0162 482.39169 4278190080
398.36258 394.14493 851.50494 4278190080
813.0451 472.69064 54.617569 4278190080
840.52429 657.57172 57.429562 4278190080
293.98938 767.19879 760.94568 4278190080
108.31645 693.9494 431.95468 4278190080
90.819496 338.95917 349.19144 4278190080
667.04657 255.97459 549.83099 4278190080
91.54277 810.49506 1021.6061 4278190080
490.40518 464.86487 241.23753 4278190080
336.97 835.57294 641.25372 4278190080
819.36169 209.9355 11.398674 4278190080
646.86664 1022.9807 484.08929 4278190080
701.48419 839.50488 117.661 4278190080
758.91376 109.49428 884.8598 4278190080
495.85941 217.81073 554.80914 4278190080
927.81409 308.63022 893.76831 4278190080
253.00555 975.67682 125.74292 4278190080
802.83655 43.219559 936.23798 4278190080
800.44263 533.62476 377.10284 4278190080
17.680193 870.59473 188.67578 4278190080
658.93396 665.95642 398.6113 4278190080
670.33258 288.82306 397.59192 4278190080
130.42192 990.30725 213.09683 4278190080
248.08292 725.22101 322.59109 4278190080
108.9427 197.0804 540.40186 4278190080
663.75183 100.8945 849.03204 4278190080
533.52014 353.90005 800.70886 4278190080
659.26306 132.7366 843.92841 4278190080
571.50104 933.17926 353.55316 4278190080
948.60388 950.85944 200.1479 4278190080
113.27969 585.7934 866.10437 4278190080
511.89096 232.12601 130.9274 4278190080
909.48291 362.54791 97.234634 4278190080
98.579712 610.63086 822.45563 4278190080
421.17081 719.57355 1019.536 4278190080
961.57263 359.32538 96.430519 4278190080
786.60468 892.84552 450.33057 4278190080
563.31354 528.10864 583.0672 4278190080
383.24194 75.609695 492.24643 4278190080
736.7951 0.21359682 419.1059 4278190080
936.94299 113.49328 1004.8993 4278190080
779.04736 625.38428 213.02528 4278190080
909.97473 510.86713 575.57318 4278190080
1007.2094 609.44684 162.20404 4278190080
805.66498 6.6176653 881.77759 4278190080
801.20099 968.19031 217.10295 4278190080
897.63153 730.79498 85.948494 4278190080
323.9621 270.10852 614.05713 4278190080
907.0293 653.35046 689.66681 4278190080
375.2757 366.14557 689.88043 4278190080
794.38159 279.08856 803.37372 4278190080
775.28088 34.135895 404.75793 4278190080
988.30615 944.11066 915.62506 4278190080
539.87933 927.32001 501.07193 4278190080
702.08337 708.98499 507.68961 4278190080
559.86096 486.18597 451.87991 4278190080
776.96387 359.8175 158.67491 4278190080
862.91241 683.7796 428.78345 4278190080
452.96951 566.8089 58.133896 4278190080
118.63634 942.08459 424.27945 4278190080
808.51678 712.46619 703.36798 4278190080
587.89044 463.74707 737.50391 4278190080
992.64844 428.05322 657.6145 4278190080
884.2735 967.93256 560.93451 4278190080
361.34543 646.01593 245.91951 4278190080
869.03503 181.87688 732.10547 4278190080
296.91495 958.84076 67.922989 4278190080
455.58984 797.75317 751.70258 4278190080
884.37329 226.7227 294.51147 4278190080
942.5072 345.35904 212.59605 4278190080
342.78662 129.87581 925.06226 4278190080
22.154636 717.7663 364.8093 4278190080
759.65851 686.41467 792.86249 4278190080
393.27307 546.68817 736.79504 4278190080
954.20758 908.03363 358.81097 4278190080
176.12711 753.06866 540.68787 4278190080
908.2326 25.983597 475.52863 4278190080
976.15558 481.57346 249.28181 4278190080
703.85815 341.94672 476.00452 4278190080
998.36963 260.45392 821.36353 4278190080
186.96568 603.24054 951.23938 4278190080
88.027916 625.3952 645.00562 4278190080
452.83722 361.05371 307.42032 4278190080
221.69971 754.32678 854.10846 4278190080
958.49475 684.53436 738.14209 4278190080
293.30573 860.6615 467.21075 4278190080
833.99359 744.89404 493.19434 4278190080
285.52225 697.04962 974.76782 4278190080
534.80402 376.90781 292.71454 4278190080
1010.8085 351.27744 553.16846 4278190080
808.17212 538.2431 132.40898 4278190080
735.41144 626.27106 757.80414 4278190080
356.41708 55.108246 94.857872 4278190080
663.8374 276.80795 849.18463 4278190080
493.94586 211.3027 509.71906 4278190080
208.08795 504.60843 346.38052 4278190080
675.29871 314.60202 67.274597 4278190080
144.49304 600.12427 764.32422 4278190080
95.260841 110.9283 117.23204 4278190080
387.97537 97.736847 468.50949 4278190080
941.1438 905.90894 1006.7526 4278190080
49.552776 617.32037 609.02362 4278190080
807.35693 973.73749 664.1319 4278190080
902.21478 613.57483 940.93982 4278190080
727.39948 83.520691 128.24254 4278190080
213.1185 291.60864 632.85095 4278190080
559.49902 966.90735 947.453 4278190080
626.77362 87.400406 523.57727 4278190080
367.09787 182.66124 634.50555 4278190080
484.3299 570.6366 732.24237 4278190080
952.83942 487.7804 614.15137 4278190080
935.59198 537.33319 207.47174 4278190080
520.61566 320.69012 157.2092 4278190080
160.74753 198.90492 770.78406 4278190080
77.68737 926.30438 854.30475 4278190080
205.9299 115.42289 121.91338 4278190080
838.78088 674.92194 64.820732 4278190080
762.23389 277.69556 152.22113 4278190080
261.8111 644.7934 334.88239 4278190080
896.31665 105.12331 905.51898 4278190080
604.55902 33.962692 369.29941 4278190080
194.71039 969.55469 906.63257 4278190080
402.18213 466.17032 203.32271 4278190080
559.3913 626.91785 402.22763 4278190080
306.17535 704.60522 304.53201 4278190080
136.48007 910.53516 419.9549 4278190080
258.39343 725.31598 70.876831 4278190080
323.21417 463.54987 348.57239 4278190080
475.4353 725.36096 993.36578 4278190080
810.31769 597.67761 74.489075 4278190080
691.83667 178.23665 108.45177 4278190080
37.136078 372.94702 54.006454 4278190080
943.76868 775.12915 520.17676 4278190080
123.09137 310.52045 123.09464 4278190080
525.31903 616.6958 827.69983 4278190080
829.85101 753.17584 714.23499 4278190080
225.80594 1011.5693 415.55096 4278190080
296.68277 310.78348 879.10083 4278190080
645.25513 786.21881 580.46179 4278190080
614.62091 572.5365 154.13939 4278190080
689.10999 240.37315 332.37604 4278190080
797.56177 277.50925 705.32306 4278190080
851.56824 197.27789 456.45218 4278190080
347.745 320.36926 766.97266 4278190080
470.83963 845.68829 359.66843 4278190080
274.53949 651.53931 88.844299 4278190080
988.77448 877.34521 76.413612 4278190080
380.32544 150.028 387.19708 4278190080
235.42627 795.28314 149.41589 4278190080
815.88806 385.90405 721.95239 4278190080
970.0274 51.014046 962.3255 4278190080
278.40344 848.57581 215.83476 4278190080
983.7265 676.14404 413.11267 4278190080
416.17871 1023.889 733.48193 4278190080
159.15134 470.72864 555.17023 4278190080
518.81976 745.26813 182.7095 4278190080
607.66406 710.0426 36.054752 4278190080
684.0777 66.368019 186.08276 4278190080
47.274784 301.79428 981.36591 4278190080
196.69067 93.682335 343.26996 4278190080
918.64307 39.709766 394.284 4278190080
856.96857 318.11322 218.8598 4278190080
48.803322 277.83972 895.00385 4278190080
461.91599 694.01843 894.89282 4278190080
171.3979 853.1698 341.62149 4278190080
726.56812 347.98956 62.889595 4278190080
909.27765 955.65363 772.93219 4278190080
945.3324 615.73132 839.30017 4278190080
107.41513 663.0061 117.09448 4278190080
64.781029 859.69678 210.77682 4278190080
408.05099 754.33978 250.48659 4278190080
802.33496 587.30835 568.59979 4278190080
1021.1948 636.11169 846.43951 4278190080
892.19861 74.027679 516.45795 4278190080
763.09149 245.42558 345.62775 4278190080
80.712952 971.99371 693.61731 4278190080
143.60254 857.2713 625.27094 4278190080
916.53473 778.6037 217.00224 4278190080
731.8349 886.0188 880.00836 4278190080
848.92938 950.79987 715.70514 4278190080
35.706219 334.85083 446.04492 4278190080
286.19281 113.18584 9.3533134 4278190080
854.7926 110.38064 645.46503 4278190080
677.23218 1002.5793 719.49268 4278190080
169.69012 741.67072 964.91827 4278190080
515.31787 822.38367 912.91199 4278190080
184.93517 965.98621 746.18329 4278190080
810.20612 858.52094 500.78699 4278190080
3.2083459 566.3559 362.80579 4278190080
883.21667 391.28528 289.60565 4278190080
574.92181 426.99149 624.45648 4278190080
1020.9667 713.18427 737.64233 4278190080
6.3200717 543.97693 848.02295 4278190080
651.7851 197.20906 826.60223 4278190080
347.27777 366.89917 544.27295 4278190080
288.19604 882.21704 342.65665 4278190080
177.108 43.152225 284.64288 4278190080
923.29126 853.35834 119.16383 4278190080
400.07828 856.56665 685.51971 4278190080
762.88403 715.78339 52.804985 4278190080
28.48971 266.7052 479.79648 4278190080
652.94623 263.67194 168.98077 4278190080
366.58853 269.992 712.9577 4278190080
190.6115 921.7771 910.16675 4278190080
1017.2137 245.05487 253.06592 4278190080
537.48669 533.25092 111.28297 4278190080
880.14331 710.35895 154.4352 4278190080
140.78622 609.65021 1007.7935 4278190080
259.95004 1009.7285 840.36017 4278190080
945.46979 748.61255 532.14355 4278190080
998.27472 777.10223 798.84875 4278190080
454.07123 406.04846 38.520695 4278190080
623.052 772.63696 308.51273 4278190080
312.00967 963.24847 206.28981 4278190080
198.17641 956.46216 451.3447 4278190080
451.24234 469.94888 984.59558 4278190080
562.52533 326.09219 670.95453 4278190080
716.96051 466.87842 256.60474 4278190080
700.75403 726.82849 242.33322 4278190080
517.11426 648.29822 990.94574 4278190080
25.257795 622.573 744.04797 4278190080
824.10657 52.644218 126.09644 4278190080
862.62726 675.69623 898.7334 4278190080
147.13995 987.70587 837.98187 4278190080
353.42978 161.88229 770.44409 4278190080
804.77448 613.12463 216.39294 4278190080
765.37006 151.64992 542.48517 4278190080
412.32458 868.61041 1009.3636 4278190080
668.92932 545.36444 712.19208 4278190080
911.26251 38.478699 336.4903 4278190080
878.20831 63.736492 959.06329 4278190080
598.25629 887.84302 1011.7075 4278190080
724.35272 726.47028 663.40375 4278190080
599.08612 873.61023 627.10962 4278190080
413.06805 203.04001 788.99188 4278190080
159.51212 1007.8145 378.11652 4278190080
375.90506 749.18451 529.76642 4278190080
918.3902 137.50909 374.37686 4278190080
903.75378 806.43842 919.74133 4278190080
591.94586 693.70093 958.22003 4278190080
928.43616 547.90924 1021.9565 4278190080
863.49945 122.16553 885.79956 4278190080
851.20691 846.51825 588.26984 4278190080
490.61066 421.6044 437.88007 4278190080
93.720261 834.67242 640.92004 4278190080
882.71216 994.18457 624.7345 4278190080
236.82866 346.08963 349.91904 4278190080
766.59509 240.47984 487.42813 4278190080
116.97195 120.23363 269.86655 4278190080
12.713282 712.17944 963.5675 4278190080
970.93329 616.6156 487.47675 4278190080
968.88983 456.11505 609.64227 4278190080
830.68939 283.32199 432.16055 4278190080
394.95923 773.93262 853.76495 4278190080
832.83929 867.65289 664.43744 4278190080
449.75937 726.36505 634.62201 4278190080
50.493881 963.19373 980.71161 4278190080
400.41293 705.78882 197.19147 4278190080
887.84106 822.76074 317.42511 4278190080
133.70761 835.474 5.6045666 4278190080
73.275124 782.40735 622.22015 4278190080
560.75189 727.29718 54.335217 4278190080
146.39418 533.98657 337.6572 4278190080
578.55475 928.94574 87.589836 4278190080
408.3197 737.78503 955.24274 4278190080
48.75713 163.5444 657.60779 4278190080
683.37915 214.03828 596.80145 4278190080
640.09076 614.45117 278.59027 4278190080
837.28223 478.29227 77.351021 4278190080
130.70731 611.99988 912.82507 4278190080
136.31187 685.27496 671.23236 4278190080
758.53204 222.02687 374.52954 4278190080
812.86725 368.42105 908.51611 4278190080
126.52447 946.97577 813.46185 4278190080
214.1143 331.2955 527.24689 4278190080
145.35704 380.05261 690.79132 4278190080
802.96478 39.431744 904.82959 4278190080
375.7663 679.52246 495.28079 4278190080
654.35657 492.80469 973.57306 4278190080
731.70758 623.51202 561.57294 4278190080
620.53265 759.82385 222.84792 4278190080
267.76501 494.35593 444.87479 4278190080
642.29456 283.22321 813.29584 4278190080
526.81067 409.74768 736.27161 4278190080
316.27255 623.86194 43.56712 4278190080
843.51947 769.21899 423.61975 4278190080
510.31076 548.18384 463.05148 4278190080
391.14035 923.95013 118.57397 4278190080
886.42114 554.3067 611.37866 4278190080
835.9942 262.01425 210.89067 4278190080
373.56714 882.54688 970.71454 4278190080
596.41504 126.31193 441.0705 4278190080
17.289825 768.60651 724.2937 4278190080
830.58569 271.41721 110.04135 4278190080
542.8573 587.68976 733.90332 4278190080
586.42444 407.2092 479.12231 4278190080
1010.0441 917.51996 3.3061419 4278190080
449.09564 284.66031 927.25623 4278190080
567.66962 147.08147 457.56293 4278190080
155.04828 983.07568 719.57721 4278190080
365.93896 332.64279 578.12408 4278190080
312.6535 929.05786 704.43604 4278190080
753.724 946.34766 449.04251 4278190080
454.0177 752.93335 720.45972 4278190080
564.05902 271.79062 284.14944 4278190080
273.96237 858.21503 691.35864 4278190080
753.08472 844.25922 584.8786 4278190080
756.39087 269.35483 869.53888 4278190080
659.64709 837.02441 1016.6204 4278190080
93.210014 992.07275 975.69604 4278190080
812.78717 334.01169 284.33887 4278190080
366.91129 646.66522 189.3967 4278190080
47.347286 376.38922 111.74437 4278190080
496.3898 830.40692 864.67773 4278190080
192.84952 370.46594 112.46834 4278190080
476.99896 644.42834 970.68335 4278190080
144.35762 373.51303 790.94257 4278190080
729.23621 105.90387 36.297401 4278190080
574.77515 765.55096 873.32184 4278190080
567.39551 858.76099 841.39459 4278190080
519.09155 647.54816 151.40625 4278190080
803.43042 1014.4595 798.07147 4278190080
992.82709 37.806736 150.46066 4278190080
80.571487 534.19653 980.86755 4278190080
945.24921 727.04608 327.3335 4278190080
33.717525 180.04504 971.76184 4278190080
1004.4009 324.40265 321.27487 4278190080
771.34344 29.638874 427.17874 4278190080
807.64087 604.414 168.72971 4278190080
656.96271 147.80949 3.4906778 4278190080
474.3573 666.90106 651.03888 4278190080
625.76355 446.33145 641.49829 4278190080
399.83499 415.15857 679.30505 4278190080
550.29565 495.73004 189.50159 4278190080
507.16321 416.97925 916.54767 4278190080
834.4967 450.69678 72.592705 4278190080
782.25854 431.09766 396.99536 4278190080
79.533432 178.44115 426.63425 4278190080
506.71216 986.08203 7.0482316 4278190080
675.44189 619.04474 154.85773 4278190080
678.93256 69.402031 821.75879 4278190080
305.97141 695.16559 244.09023 4278190080
947.46973 71.000572 659.24878 4278190080
602.77472 621.2962 130.97885 4278190080
792.27631 104.45945 547.95807 4278190080
684.82397 938.95618 998.65485 4278190080
757.41669 697.21472 405.75253 4278190080
130.41203 776.74817 584.19366 4278190080
557.04626 259.46033 546.2757 4278190080
564.09448 934.90222 141.32043 4278190080
718.95221 589.83478 210.72246 4278190080
516.711 895.80615 905.88806 4278190080
760.80121 819.27582 976.88861 4278190080
396.05002 398.05057 574.18481 4278190080
527.02887 166.3269 678.64429 4278190080
50.986977 851.15088 593.60046 4278190080
25.641844 584.56757 266.81522 4278190080
431.39438 714.97961 19.563381 4278190080
1015.5881 248.02586 279.02371 4278190080
537.86377 812.12036 189.92593 4278190080
679.1842 507.0726 779.76068 4278190080
889.90668 1023.7836 651.56683 4278190080
771.79468 760.58484 446.84268 4278190080
724.68329 132.63486 844.89325 4278190080
274.86813 659.66376 1011.2202 4278190080
953.51245 710.6507 838.37103 4278190080
523.11292 736.29254 398.9386 4278190080
789.9281 143.68695 89.918182 4278190080
809.49146 135.27501 337.94403 4278190080
64.515205 673.13879 126.06441 4278190080
254.44113 328.32297 633.13702 4278190080
10.201824 194.22961 632.92065 4278190080
661.76868 966.02429 369.50546 4278190080
84.611351 666.70764 502.14032 4278190080
929.50464 941.57574 137.80408 4278190080
916.72479 871.0882 848.45477 4278190080
731.09583 370.20108 560.74738 4278190080
106.03442 136.12918 704.43433 4278190080
195.95261 945.62067 839.70929 4278190080
533.89667 1010.1359 488.84808 4278190080
659.96106 240.57701 817.17102 4278190080
269.09808 250.77882 1011.4006 4278190080
902.01874 912.54749 953.42499 4278190080
247.52419 997.15881 596.13263 4278190080
749.66455 902.66345 513.70837 4278190080
887.46863 795.38824 360.79657 4278190080
711.9234 502.48407 730.99768 4278190080
248.67076 608.51849 867.12683 4278190080
953.10504 804.47113 788.7475 4278190080
768.81439 314.36774 774.88336 4278190080
233.66246 974.3288 1015.4604 4278190080
26.8335 219.4269 242.23923 4278190080
14.234159 97.445618 130.78671 4278190080
967.65912 344.96982 103.94556 4278190080
539.79175 70.634331 1006.609 4278190080
29.500109 958.10291 777.99725 4278190080
390.29669 646.02631 256.48135 4278190080
97.294334 894.69708 864.99988 4278190080
964.4212 823.80219 645.47095 4278190080
729.1687 568.61652 959.83868 4278190080
480.05206 802.27899 910.16754 4278190080
471.51248 829.11249 105.59441 4278190080
713.75171 843.34668 203.04002 4278190080
844.53839 787.0058 548.00983 4278190080
948.48395 302.79755 618.64417 4278190080
931.09296 332.29764 552.74713 4278190080
685.09027 722.5943 174.77344 4278190080
941.57159 819.88867 45.470531 4278190080
782.57147 760.30981 869.27271 4278190080
404.04242 465.47855 413.88925 4278190080
339.88113 945.53064 192.16824 4278190080
226.04863 393.04309 1021.2808 4278190080
331.64304 82.794762 840.62738 4278190080
534.68304 927.33319 603.63318 4278190080
58.692902 851.81714 906.43073 4278190080
677.3371 758.9101 214.72839 4278190080
206.08417 420.00037 937.32269 4278190080
380.8576 337.57196 733.21136 4278190080
426.32812 96.143433 469.52121 4278190080
271.60083 500.18585 934.99976 4278190080
685.49005 840.06696 856.53033 4278190080
877.65833 42.115601 225.57343 4278190080
874.93909 373.75864 308.36819 4278190080
691.56647 908.44171 211.70135 4278190080
271.19968 967.13464 39.518482 4278190080
153.63042 620.47168 798.42859 4278190080
368.3588 826.55585 194.42896 4278190080
281.68152 183.41345 532.00092 4278190080
1014.8929 609.74158 628.14435 4278190080
460.41409 881.34241 104.33022 4278190080
371.41382 542.83252 944.39716 4278190080
203.94417 396.49081 986.51282 4278190080
429.51758 247.42989 336.27142 4278190080
737.88574 938.99634 220.71313 4278190080
949.5871 186.19603 163.84776 4278190080
989.10559 339.82645 784.31946 4278190080
763.53418 708.18524 586.87531 4278190080
957.96313 989.86676 770.28876 4278190080
465.96408 980.75964 356.03036 4278190080
70.108452 417.17374 213.37279 4278190080
174.43866 788.58759 756.20532 4278190080
94.835854 992.53174 128.69612 4278190080
57.34864 398.04932 376.12601 4278190080
393.62006 111.9351 291.12238 4278190080
614.33319 37.522221 477.31839 4278190080
778.18097 2.6278262 817.14484 4278190080
538.50043 766.16205 501.33014 4278190080
101.3757 700.12518 467.1969 4278190080
871.66443 142.08926 423.95657 4278190080
203.69481 212.19772 841.13031 4278190080
417.0676 386.63638 605.7179 4278190080
149.27289 481.47223 574.24963 4278190080
277.96899 538.82086 972.29895 4278190080
654.09503 932.44098 60.234055 4278190080
945.21741 522.77417 97.756271 4278190080
398.53577 276.95514 100.3841 4278190080
191.68065 815.45557 866.54614 4278190080
693.01074 916.83124 542.67133 4278190080
136.20767 764.49567 684.76056 4278190080
560.16425 968.19049 896.95831 4278190080
377.29459 361.25809 259.59467 4278190080
983.01245 510.53098 741.06689 4278190080
533.26208 788.49994 255.8878 4278190080
481.56107 418.59497 164.32875 4278190080
541.7951 339.81235 687.10291 4278190080
639.55139 738.34814 964.05804 4278190080
739.93549 930.02875 755.51361 4278190080
582.48163 599.03955 648.34485 4278190080
101.15292 735.24725 388.84052 4278190080
785.91351 271.41147 333.03101 4278190080
658.87177 648.70605 694.28906 4278190080
918.46649 607.71851 180.82005 4278190080
635.53339 116.98064 969.32001 4278190080
891.4212 598.54175 363.91498 4278190080
31.749943 116.33685 703.72736 4278190080
718.85284 755.88824 418.07547 4278190080
658.91089 471.82373 324.10425 4278190080
390.42447 30.305353 923.1438 4278190080
14.7693 131.45828 634.39099 4278190080
403.6098 917.37177 905.80249 4278190080
736.64081 552.24359 530.50854 4278190080
406.9299 446.71005 114.22709 4278190080
587.74994 58.243431 231.20773 4278190080
533.06995 949.66461 829.74945 4278190080
896.98492 981.41455 946.0863 4278190080
576.71228 676.2674 677.97455 4278190080
994.78772 311.17831 125.79826 4278190080
294.892 701.60278 156.10362 4278190080
194.03578 716.37213 287.56189 4278190080
828.42682 95.981918 180.93367 4278190080
710.22931 832.62274 733.17725 4278190080
216.73785 215.55263 155.88728 4278190080
330.96494 803.30255 214.13071 4278190080
562.17267 312.37253 139.79533 4278190080
367.92212 185.35745 97.209908 4278190080
290.00842 762.0697 773.47736 4278190080
967.98291 732.85748 60.655655 4278190080
69.781204 3.7494564 762.25848 4278190080
225.88483 197.78523 454.63058 4278190080
513.44672 2.2120404 550.61249 4278190080
694.38037 712.44135 359.23523 4278190080
403.55762 929.1792 574.78784 4278190080
559.44489 236.14412 354.09039 4278190080
773.57562 798.31677 666.46289 4278190080
913.37097 142.23889 851.82037 4278190080
1010.5809 432.24731 589.89008 4278190080
760.05817 376.23026 298.74756 4278190080
820.71387 446.01144 302.49701 4278190080
558.97229 671.8963 500.28226 4278190080
1013.6028 161.34299 502.49429 4278190080
540.21533 855.72339 190.93562 4278190080
899.45056 235.28101 96.114815 4278190080
450.23843 794.72589 332.25894 4278190080
804.3288 544.30151 106.57571 4278190080
446.79175 433.67249 248.81461 4278190080
274.61212 420.25333 681.06189 4278190080
864.5022 156.31152 33.29216 4278190080
139.24976 977.02539 479.30362 4278190080
441.74677 511.99768 127.19988 4278190080
942.02905 501.60052 288.54288 4278190080
420.52332 17.815899 120.26626 4278190080
611.45892 917.26648 355.54727 4278190080
707.57379 343.50491 126.27319 4278190080
15.832695 123.83372 670.57471 4278190080
122.40841 570.62549 80.247208 4278190080
371.22302 845.23761 500.50055 4278190080
28.284935 685.73981 656.81207 4278190080
61.577099 824.98956 609.8374 4278190080
540.88074 242.73633 97.835098 4278190080
668.08057 160.76535 599.43561 4278190080
956.62347 581.2887 617.25153 4278190080
52.889732 168.74762 510.51801 4278190080
408.43701 876.32141 854.02295 4278190080
534.71021 892.15405 977.85663 4278190080
181.28491 1014.5625 524.48212 4278190080
261.53214 361.78552 345.7197 4278190080
762.03265 390.07043 7.4594979 4278190080
394.84473 451.64755 832.44904 4278190080
1004.6822 992.52826 51.185371 4278190080
78.517265 636.60883 211.95071 4278190080
677.95288 569.2323 793.23938 4278190080
271.20444 622.12207 961.987 4278190080
781.72247 6.5590601 814.30841 4278190080
611.74536 541.26923 682.46246 4278190080
565.60205 722.5542 673.02496 4278190080
66.084145 984.0863 10.810472 4278190080
411.80386 722.11896 400.88092 4278190080
419.26334 92.963692 852.52844 4278190080
227.7124 73.645851 821.0567 4278190080
278.89777 152.16312 433.66556 4278190080
490.84848 830.11603 1002.8979 4278190080
260.08789 77.320457 601.0199 4278190080
198.07489 859.04291 607.57898 4278190080
1012.3833 446.78827 124.84824 4278190080
670.84576 1012.3903 847.4024 4278190080
319.87073 54.474449 807.48871 4278190080
330.68121 466.27829 505.60767 4278190080
731.56213 885.54163 598.57135 4278190080
560.09058 89.254051 672.21722 4278190080
357.14728 368.15182 824.38031 4278190080
790.81281 859.00031 630.49634 4278190080
769.71069 95.088181 707.81677 4278190080
346.73062 293.16306 542.85968 4278190080
954.30963 281.54636 989.64801 4278190080
55.15786 952.39209 978.03827 4278190080
902.56024 248.26283 8.5127449 4278190080
686.04895 578.94403 474.79105 4278190080
167.65663 286.50613 336.3327 4278190080
766.22797 846.59674 425.58673 4278190080
414.44519 179.74399 793.73859 4278190080
214.8255 970.55682 628.73889 4278190080
845.32184 716.26752 723.82703 4278190080
529.13861 38.998158 1016.9901 4278190080
47.998333 993.3078 274.53647 4278190080
13.646322 24.46563 202.92857 4278190080
991.68463 927.02588 451.19141 4278190080
1000.1974 589.07489 6.1354361 4278190080
450.9884 756.73151 292.64157 4278190080
787.32111 498.95947 115.2383 4278190080
188.90785 913.40466 294.9823 4278190080
982.64642 104.23016 241.53912 4278190080
587.38525 949.552 957.80664 4278190080
287.21231 454.69061 996.80481 4278190080
280.20242 502.68896 966.11255 4278190080
554.73889 516.33527 990.57819 4278190080
757.66748 484.0199 893.60413 4278190080
184.85886 460.21725 458.67899 4278190080
190.99429 911.20569 191.41049 4278190080
483.63589 674.52679 690.37 4278190080
598.87421 863.43463 579.7746 4278190080
893.85651 822.08105 684.00476 4278190080
111.3956 385.46631 609.55676 4278190080
45.202244 672.67865 40.247387 4278190080
18.007046 952.88104 542.93634 4278190080
984.11963 483.61993 35.271614 4278190080
950.69781 217.2874 519.2915 4278190080
820.30194 402.14627 979.50873 4278190080
254.98091 593.14056 866.71442 4278190080
446.39139 52.776443 517.24121 4278190080
112.76137 651.65063 356.67581 4278190080
692.53601 521.50708 154.75685 4278190080
352.54077 632.90271 540.22314 4278190080
962.09753 678.10492 188.90178 4278190080
1002.3449 696.112 117.78284 4278190080
521.28125 656.23163 601.40277 4278190080
556.55286 582.92944 818.69019 4278190080
51.844383 379.23138 196.83644 4278190080
7.3531408 634.21228 789.97699 4278190080
874.06757 56.603691 842.75342 4278190080
367.30875 169.36505 470.40408 4278190080
723.98456 861.90106 991.91119 4278190080
878.74139 190.44182 600.81384 4278190080
394.96457 128.53937 254.91881 4278190080
583.86633 106.88429 951.03076 4278190080
701.64917 628.16559 583.26239 4278190080
279.05194 160.71844 142.19183 4278190080
73.742126 212.56282 521.42322 4278190080
270.57855 219.91597 131.6355 4278190080
36.555565 69.983528 188.2392 4278190080
879.30902 437.29227 357.60425 4278190080
325.71307 137.27684 195.50529 4278190080
293.62424 1016.0182 385.94711 4278190080
894.43811 386.98282 514.48651 4278190080
125.35692 970.84912 621.37079 4278190080
52.387711 648.49829 225.53635 4278190080
635.65009 927.55023 386.25479 4278190080
777.84192 1001.2924 598.81763 4278190080
275.26517 247.87096 818.73358 4278190080
406.90067 284.42651 888.7171 4278190080
595.13983 139.73553 302.0094 4278190080
952.74408 465.44861 439.28622 4278190080
124.24939 759.07288 431.30447 4278190080
510.1965 629.51099 818.28729 4278190080
0.68299627 754.86786 765.13641 4278190080
622.05377 807.25562 389.63474 4278190080
847.59009 418.9057 293.185 4278190080
209.84489 172.74767 270.47739 4278190080
808.66248 448.01282 518.34833 4278190080
603.39606 854.91345 802.77484 4278190080
468.11319 426.05331 942.51038 4278190080
770.12256 354.79742 383.95898 4278190080
185.40881 479.04681 119.03185 4278190080
616.71326 989.24335 748.54285 4278190080
411.00058 989.92633 479.41071 4278190080
152.13701 587.9801 262.66632 4278190080
541.77173 411.57022 681.57202 4278190080
834.95679 621.4151 854.3197 4278190080
81.434158 406.07761 278.33249 4278190080
599.78253 1009.4737 109.24598 4278190080
378.55737 453.58688 535.29932 4278190080
297.06775 199.70946 890.09674 4278190080
681.02673 385.11826 345.14352 4278190080
800.05859 1001.8315 310.38687 4278190080
524.60144 388.83212 276.31317 4278190080
1004.0121 540.96912 864.29327 4278190080
242.67844 58.740883 251.86348 4278190080
924.25049 893.69763 873.27856 4278190080
754.57013 975.13184 255.35619 4278190080
8.9026432 550.91431 240.82988 4278190080
118.14862 929.47168 694.41675 4278190080
653.44794 202.53944 894.12622 4278190080
519.54468 883.56622 255.24448 4278190080
864.68817 659.62482 233.07602 4278190080
151.07504 160.22623 621.90814 4278190080
427.38821 140.23836 138.87727 4278190080
267.68149 382.91681 197.61815 4278190080
519.54498 283.16727 67.315804 4278190080
368.82355 13.737392 18.447613 4278190080
624.17975 22.640038 569.36194 4278190080
865.00964 140.78867 474.83362 4278190080
535.42639 794.23657 677.37305 4278190080
405.55258 289.78125 536.93927 4278190080
660.79706 130.46942 172.56407 4278190080
893.87311 281.54446 332.79028 4278190080
491.78122 708.93268 473.02866 4278190080
630.65851 976.6142 855.94543 4278190080
828.27661 472.15918 115.1127 4278190080
895.59247 840.98273 128.8501 4278190080
914.04004 441.16248 151.49013 4278190080
459.40198 282.17209 292.27878 4278190080
934.2356 817.59845 62.515381 4278190080
587.60864 199.15106 352.29663 4278190080
100.54794 859.94812 482.76605 4278190080
273.112 729.82123 764.31055 4278190080
605.90228 197.60243 449.24323 4278190080
54.930965 828.26093 401.85739 4278190080
910.8764 632.53754 874.0166 4278190080
1.9891133 504.13 690.99927 4278190080
130.8392 394.17007 108.16176 4278190080
282.32935 853.57202 390.33386 4278190080
574.60815 763.80768 183.93233 4278190080
637.12354 327.41632 383.0834 4278190080
989.4201 427.96426 219.03152 4278190080
448.18619 701.07629 948.85272 4278190080
188.49669 282.97858 122.45516 4278190080
637.73993 337.90955 950.71606 4278190080
15.597315 224.78596 559.25366 4278190080
889.61389 226.77507 39.383652 4278190080
556.61316 357.61429 433.55371 4278190080
664.77496 639.9436 263.12576 4278190080
31.108797 190.55174 2.9334092 4278190080
215.04112 827.67523 330.34973 4278190080
598.12451 793.0954 758.31396 4278190080
817.15601 217.28156 435.39026 4278190080
742.00879 405.77826 718.36884 4278190080
864.46393 19.518158 32.278397 4278190080
791.17999 35.115475 257.06436 4278190080
326.43365 924.72937 483.83942 4278190080
365.81732 457.34253 841.45367 4278190080
799.37103 98.117485 457.39731 4278190080
38.496784 129.22629 647.94904 4278190080
41.430191 344.2674 451.62433 4278190080
371.77994 942.39191 220.7197 4278190080
106.09392 735.54797 438.00125 4278190080
541.48419 453.5567 843.77948 4278190080
235.85303 294.02063 863.29767 4278190080
268.13144 61.200649 898.41315 4278190080
525.1958 387.63431 799.14252 4278190080
1009.0352 753.4516 232.48503 4278190080
826.48889 528.82263 330.60251 4278190080
259.88623 567.3194 459.8288 4278190080
907.83533 608.74963 804.09619 4278190080
335.45963 980.52954 722.48816 4278190080
556.17932 62.623463 434.03607 4278190080
994.18054 604.10767 887.59277 4278190080
813.96008 839.96069 157.61343 4278190080
653.25769 84.092117 218.81409 4278190080
527.67084 609.2879 606.44836 4278190080
302.81332 594.32312 335.90002 4278190080
535.29834 396.81201 864.72266 4278190080
865.90088 656.69824 408.04208 4278190080
301.72971 540.53357 1016.7917 4278190080
81.825905 875.99316 973.32123 4278190080
804.31403 408.17245 11.944708 4278190080
214.35011 378.35303 616.05237 4278190080
77.942917 168.31308 432.01303 4278190080
235.55635 821.5708 516.10516 4278190080
454.37042 325.24164 101.39305 4278190080
36.818825 628.05493 695.71619 4278190080
372.71884 139.35333 68.528183 4278190080
213.4415 1005.2542 725.22644 4278190080
621.48358 282.98392 241.75998 4278190080
614.27527 364.80981 93.753143 4278190080
563.5965 145.12386 501.9256 4278190080
575.54126 359.47397 880.27863 4278190080
167.59358 437.4169 24.591709 4278190080
599.60663 672.97327 846.16248 4278190080
91.711784 103.34367 147.40411 4278190080
193.10484 140.16251 775.45905 4278190080
888.82098 512.88135 914.81238 4278190080
957.34918 726.32281 896.06665 4278190080
658.57562 323.8064 155.05054 4278190080
900.33557 938.08167 519.86035 4278190080
994.08875 477.67822 664.98425 4278190080
472.01434 29.219439 0.45820856 4278190080
328.29297 196.81302 437.87509 4278190080
352.8847 796.41968 86.848343 4278190080
175.04718 888.13147 190.19202 4278190080
322.45129 57.236279 330.35452 4278190080
73.910378 946.05725 843.23584 4278190080
988.72278 879.40643 545.55872 4278190080
860.78943 513.98206 869.36511 4278190080
1015.84 390.31766 783.44678 4278190080
511.70032 360.4064 237.12498 4278190080
152.68454 832.42072 266.34442 4278190080
153.14275 136.71371 463.15747 4278190080
591.01782 489.59842 235.57712 4278190080
677.86621 664.64557 99.708549 4278190080
868.05823 987.09686 156.94482 4278190080
174.41273 37.007271 79.002106 4278190080
1017.6486 1.7300501 958.40857 4278190080
539.20728 862.51947 448.39062 4278190080
384.57239 854.35938 838.70825 4278190080
144.01918 342.05969 175.11465 4278190080
381.14417 494.74423 1007.5354 4278190080
647.48859 647.88696 120.24911 4278190080
86.646057 214.90483 609.84753 4278190080
322.22318 892.77106 250.49312 4278190080
421.93173 736.82922 213.59001 4278190080
578.87653 911.242 250.59727 4278190080
657.87866 904.89062 252.32733 4278190080
592.28723 420.0979 90.846779 4278190080
16.677828 804.67029 945.20618 4278190080
855.38611 948.68945 263.26587 4278190080
6.5007567 305.83365 758.01013 4278190080
1014.0361 953.32227 381.89713 4278190080
110.28526 15.968294 596.80194 4278190080
720.13281 338.19147 465.573 4278190080
970.62592 760.12317 178.40224 4278190080
160.21591 314.99973 65.644226 4278190080
410.81317 972.87836 970.53485 4278190080
663.1405 541.16559 366.63272 4278190080
753.9873 557.84344 147.30301 4278190080
675.19348 389.22952 71.992477 4278190080
938.45935 395.73029 377.82611 4278190080
672.46948 385.76642 307.14835 4278190080
30.366592 496.0517 323.11664 4278190080
627.16852 192.18448 661.30811 4278190080
68.741524 138.81038 397.4313 4278190080
247.14375 299.02631 712.43103 4278190080
312.78799 709.83948 661.30939 4278190080
259.32281 348.97998 178.47501 4278190080
625.95551 78.967278 736.31842 4278190080
773.25854 754.16077 101.54794 4278190080
845.25104 668.62012 497.27823 4278190080
199.07713 317.08957 883.04468 4278190080
506.22549 347.45618 355.09634 4278190080
829.34216 974.62469 547.28082 4278190080
466.65024 19.366241 686.09119 4278190080
864.08154 266.51001 985.11749 4278190080
552.51257 579.29797 670.95697 4278190080
189.82196 838.62079 1019.937 4278190080
368.29697 440.57632 74.904251 4278190080
80.615395 189.83487 829.065 4278190080
182.16333 11.085889 473.68512 4278190080
679.44159 210.16302 790.77466 4278190080
538.48621 716.38849 114.23086 4278190080
893.58258 521.73065 64.855576 4278190080
416.8634 988.38092 84.221817 4278190080
78.954605 828.4624 350.73181 4278190080
40.072113 356.97498 930.02979 4278190080
711.02911 546.79694 744.65057 4278190080
706.96606 915.09393 161.22693 4278190080
781.8703 995.70929 351.0618 4278190080
586.9353 153.87265 362.14771 4278190080
36.620434 833.31421 572.31073 4278190080
827.39514 347.80042 264.69922 4278190080
941.62598 217.38298 786.42987 4278190080
1006.4816 634.2464 750.81079 4278190080
66.703377 713.20099 555.27319 4278190080
417.43518 753.27307 912.24817 4278190080
323.465 440.30219 435.04514 4278190080
44.115597 123.26827 326.13907 4278190080
205.34253 905.13861 297.84839 4278190080
556.40436 468.07391 451.72104 4278190080
918.552 504.69437 261.03525 4278190080
466.86273 308.08948 608.83569 4278190080
731.56195 225.71547 826.21869 4278190080
493.99185 208.19702 436.46503 4278190080
220.80261 274.90039 125.66602 4278190080
776.07581 692.33557 878.93915 4278190080
664.32404 1015.8006 295.24133 4278190080
75.369156 35.91618 418.50958 4278190080
401.50824 241.25871 299.64819 4278190080
699.35663 797.66302 767.72211 4278190080
127.07765 692.21509 248.41647 4278190080
388.11292 135.07782 556.50598 4278190080
996.94861 866.63977 782.22144 4278190080
799.16724 336.63165 990.41846 4278190080
211.63228 557.43427 241.31885 4278190080
337.29831 309.51007 933.65442 4278190080
192.23743 973.83411 925.45502 4278190080
487.47876 25.203239 961.37122 4278190080
905.98834 426.71146 178.6299 4278190080
181.63654 102.06808 976.29297 4278190080
949.35864 229.14572 644.508 4278190080
173.77512 617.25861 779.58582 4278190080
730.28107 590.20721 622.22565 4278190080
488.5025 365.37445 958.85724 4278190080
454.92093 577.00677 492.2915 4278190080
696.23981 914.30505 801.80157 4278190080
605.89423 82.542488 751.63568 4278190080
507.34924 570.02124 776.83893 4278190080
444.72043 452.00958 179.55038 4278190080
623.35034 633.64612 281.61847 4278190080
575.64325 559.00476 510.76419 4278190080
196.15129 732.77985 104.02283 4278190080
975.73712 439.06094 694.23004 4278190080
573.96277 927.56342 35.6045 4278190080
508.82001 358.48438 612.61127 4278190080
1001.1115 30.724163 502.91629 4278190080
778.91315 636.61841 585.4588 4278190080
506.5488 119.96762 131.48003 4278190080
259.38773 564.68805 583.48962 4278190080
438.93811 164.03839 193.13573 4278190080
720.55658 739.68164 752.1405 4278190080
207.32076 935.83295 460.92035 4278190080
311.3436 887.57007 899.98126 4278190080
1005.5736 437.53284 803.54474 4278190080
17.178123 946.35284 138.0291 4278190080
629.78937 923.46442 168.75327 4278190080
108.70567 678.3775 805.37164 4278190080
694.16449 160.92633 925.33929 4278190080
825.64447 420.31406 466.02731 4278190080
385.13412 859.25214 630.06573 4278190080
578.26984 555.80872 345.74738 4278190080
306.41031 763.12952 257.58035 4278190080
767.33069 50.473072 121.15043 4278190080
643.31195 32.046696 558.68329 4278190080
422.85666 49.224819 481.03613 4278190080
560.88574 679.01416 380.50052 4278190080
729.63904 787.71985 34.878044 4278190080
511.01068 457.88434 195.80437 4278190080
412.34995 259.52881 616.11841 4278190080
878.37726 644.6629 451.37057 4278190080
484.44296 198.93277 1007.1793 4278190080
830.19031 505.34308 746.30878 4278190080
63.770676 248.67375 796.78186 4278190080
184.92111 891.98572 828.82855 4278190080
743.60437 290.84238 878.05334 4278190080
200.64052 851.72815 533.06757 4278190080
581.14105 557.36719 296.78741 4278190080
616.0191 44.377842 754.67175 4278190080
811.82343 456.72778 1014.2006 4278190080
403.94186 311.10504 634.86353 4278190080
855.31244 795.54797 833.79626 4278190080
838.4917 601.73834 315.13937 4278190080
560.80054 665.50903 563.81311 4278190080
333.58237 850.43011 431.79883 4278190080
138.41092 570.03448 722.64124 4278190080
1016.4643 770.67499 550.36932 4278190080
525.53186 327.81604 83.736519 4278190080
822.31927 943.83514 128.11436 4278190080
552.99103 731.65857 584.84216 4278190080
543.19159 111.60043 895.94714 4278190080
154.0551 966.91284 667.49518 4278190080
987.85138 781.4046 245.23349 4278190080
278.99075 318.20511 910.74249 4278190080
842.80389 651.78748 737.17261 4278190080
250.60269 790.19836 283.20709 4278190080
973.2439 782.66266 29.882095 4278190080
499.61325 284.19452 357.69815 4278190080
583.34979 82.513786 277.53326 4278190080
711.46411 635.50482 1009.1918 4278190080
272.30627 154.69641 96.792274 4278190080
144.25345 308.75153 39.705139 4278190080
811.7486 272.60291 821.10974 4278190080
32.982094 551.59363 115.31483 4278190080
943.72461 370.39752 767.10229 4278190080
656.89722 621.00018 533.30066 4278190080
940.10431 570.24408 291.96332 4278190080
969.98639 45.857353 576.15784 4278190080
303.68451 629.20715 658.67163 4278190080
581.21777 316.67126 270.17645 4278190080
566.40961 588.97754 424.87286 4278190080
663.2019 733.23096 733.62439 4278190080
702.90704 520.97955 1006.2273 4278190080
500.01675 553.96167 533.82092 4278190080
615.3316 473.68625 904.21844 4278190080
358.43387 106.58345 501.21866 4278190080
891.73456 22.687729 47.462772 4278190080
159.69788 992.67413 93.320129 4278190080
735.85571 272.35861 722.52722 4278190080
370.52734 853.57642 15.19851 4278190080
640.7038 395.98602 604.17603 4278190080
41.576672 35.187912 313.40701 4278190080
775.20105 738.09497 834.3866 4278190080
757.42834 214.11169 364.34827 4278190080
267.2493 829.4433 838.03455 4278190080
147.46777 163.87717 944.61798 4278190080
648.68646 31.611721 967.30566 4278190080
696.14923 191.3096 935.9798 4278190080
789.46936 927.16534 184.33842 4278190080
487.99658 273.69266 13.91482 4278190080
503.1951 914.39648 409.90085 4278190080
83.37114 955.97314 445.08875 4278190080
396.77817 707.17419 159.18369 4278190080
207.16475 440.60257 373.29538 4278190080
571.513 707.85187 178.73868 4278190080
385.54752 855.31964 342.61584 4278190080
306.1655 480.00607 374.22757 4278190080
249.47118 152.1553 565.53717 4278190080
161.45099 941.62463 468.70248 4278190080
345.7894 405.62122 742.39514 4278190080
359.70422 908.81635 632.79163 4278190080
769.60504 992.18744 564.76477 4278190080
190.6938 364.96561 247.93898 4278190080
349.8775 572.13037 688.54156 4278190080
723.17291 119.64337 372.39343 4278190080
901.91156 505.19089 203.71307 4278190080
220.52744 811.35638 683.71918 4278190080
594.755 36.827572 835.87445 4278190080
136.29218 198.27855 753.49908 4278190080
604.99469 544.06793 135.12032 4278190080
323.38983 903.77216 19.93664 4278190080
956.18146 649.37726 1012.1241 4278190080
496.94626 840.07104 353.08972 4278190080
744.88525 165.94853 925.22009 4278190080
409.42679 889.1214 20.863462 4278190080
781.82025 767.03302 526.05438 4278190080
985.53333 987.56042 313.41077 4278190080
645.25244 558.31543 350.23831 4278190080
457.12692 694.6076 548.51691 4278190080
186.62602 275.60229 68.584831 4278190080
321.74634 598.99213 972.35699 4278190080
341.68298 531.17358 597.73425 4278190080
329.8071 4.119853 413.80527 4278190080
682.89679 749.00507 579.75385 4278190080
584.11688 134.43188 444.87524 4278190080
604.98035 916.25208 187.90823 4278190080
107.03472 877.7854 151.46866 4278190080
420.44547 499.03787 709.78412 4278190080
770.68378 956.16479 380.39172 4278190080
295.20068 118.79083 655.99402 4278190080
363.78552 440.53717 230.98613 4278190080
312.14252 782.22015 762.15973 4278190080
909.87677 88.027245 766.2796 4278190080
299.68204 770.92407 491.28467 4278190080
879.43585 331.04095 625.71655 4278190080
300.3111 936.0213 517.96869 4278190080
488.21936 19.056036 371.75409 4278190080
639.68799 439.50153 870.79193 4278190080
325.47211 186.18532 802.95679 4278190080
705.86383 481.38599 921.74762 4278190080
337.85782 845.17151 338.28476 4278190080
568.84399 133.31403 96.504929 4278190080
307.00372 19.19079 184.53217 4278190080
49.283302 318.87283 955.45624 4278190080
540.56799 174.3087 262.49719 4278190080
142.28455 474.61981 174.51849 4278190080
660.25323 962.83917 193.57452 4278190080
8.0072956 578.52716 633.07605 4278190080
878.79926 903.99927 819.26135 4278190080
657.75598 585.8631 276.64734 4278190080
555.5036 923.72095 97.818848 4278190080
893.78839 468.56491 231.13287 4278190080
990.29327 775.5686 250.32365 4278190080
150.82547 824.85193 569.19647 4278190080
82.2817 341.41992 743.50519 4278190080
344.77887 483.70447 194.12502 4278190080
519.29736 119.95768 132.96417 4278190080
712.87189 127.96497 711.49133 4278190080
321.94794 1006.7642 591.4906 4278190080
117.2093 640.52026 153.35373 4278190080
393.85663 172.02385 53.074661 4278190080
491.67548 41.812218 521.63959 4278190080
722.80835 8.1055202 273.20819 4278190080
973.13202 158.931 74.06012 4278190080
518.32849 241.21271 415.48001 4278190080
237.83371 585.99158 899.18451 4278190080
431.95871 81.288956 1019.1422 4278190080
564.92291 794.16089 123.10713 4278190080
252.41422 92.108803 105.87136 4278190080
843.90485 209.3181 746.3916 4278190080
997.25854 603.17474 918.41547 4278190080
26.333221 70.85022 960.22766 4278190080
547.97278 793.65857 968.33319 4278190080
821.18097 742.79059 103.26418 4278190080
895.24109 237.11909 344.47687 4278190080
286.72113 474.95282 930.46844 4278190080
161.90561 906.9115 1011.7574 4278190080
157.04778 447.83441 781.91827 4278190080
280.15491 700.24866 874.0271 4278190080
386.02628 520.15344 59.345184 4278190080
108.41786 493.41202 662.5199 4278190080
2.833302 519.74524 733.37018 4278190080
963.06097 43.718033 503.02872 4278190080
907.3941 864.89905 221.81932 4278190080
1010.6583 736.14014 458.93842 4278190080
331.13519 1022.8613 933.89124 4278190080
237.60364 160.76686 816.80273 4278190080
225.36105 317.81464 240.63716 4278190080
1007.2794 597.96954 940.8858 4278190080
857.3064 983.99585 437.03925 4278190080
916.65161 68.413689 930.45129 4278190080
