# .PCD v0.7 - Point Cloud Data file format
VERSION 0.7
FIELDS x y z rgb
SIZE 4 4 4 4
TYPE F F F U
COUNT 1 1 1 1
WIDTH 1175
HEIGHT 1
VIEWPOINT 0 0 0 1 0 0 0
POINTS 1175
DATA ascii
874.05402 45.599823 341.64682 4278190080
970.93896 360.66489 918.62958 4278190080
994.19482 938.367 42.551571 4278190080
104.09267 577.35809 22.728828 4278190080
152.64484 317.02808 817.77838 4278190080
840.78271 945.27203 867.14069 4278190080
889.54785 242.58838 342.23215 4278190080
267.73395 854.85553 735.31219 4278190080
870.2569 258.80435 94.403511 4278190080
725.11731 769.62738 118.55347 4278190080
434.70563 619.6814 164.15329 4278190080
776.35248 566.62036 524.81818 4278190080
670.98206 536.81519 439.18515 4278190080
713.53363 640.90784 1016.5433 4278190080
736.26245 793.55267 309.57135 4278190080
530.04083 610.33539 230.84337 4278190080
373.18152 475.88324 473.43176 4278190080
715.41364 743.61719 304.28726 4278190080
426.72583 589.87408 563.09161 4278190080
521.12933 290.99142 308.71899 4278190080
639.6828 725.69702 928.40033 4278190080
803.83612 478.0495 471.02069 4278190080
304.65427 125.03156 1007.8359 4278190080
743.83942 838.56519 624.74371 4278190080
736.38269 550.82764 394.29636 4278190080
21.954056 56.868484 1004.6317 4278190080
252.79742 430.04999 456.51495 4278190080
726.22919 121.46365 176.13214 4278190080
6.5164418 548.18945 766.00623 4278190080
569.60803 45.318787 32.997639 4278190080
878.32703 685.00159 758.6947 4278190080
782.72742 464.83768 212.74419 4278190080
229.74811 769.49194 337.77576 4278190080
213.58398 489.33139 152.34094 4278190080
838.32764 201.7141 703.16858 4278190080
208.62401 223.66815 760.03705 4278190080
189.25574 476.46558 166.08707 4278190080
645.77069 178.69478 287.55072 4278190080
821.90283 185.21121 835.74017 4278190080
563.90906 754.81927 881.05896 4278190080
596.90674 609.1463 542.06055 4278190080
331.60138 367.87372 1006.8982 4278190080
544.34558 597.62183 752.3902 4278190080
882.12134 811.20581 217.72157 4278190080
10.462259 625.53351 419.43567 4278190080
713.63086 834.15747 643.10382 4278190080
449.66791 1023.4132 95.56942 4278190080
615.755 645.1839 274.26419 4278190080
903.30566 443.08676 459.4754 4278190080
715.04584 1006.9958 190.29468 4278190080
572.1048 579.90253 799.44098 4278190080
90.165367 911.50397 143.31473 4278190080
73.063591 431.84952 740.93658 4278190080
825.4538 289.97086 528.1424 4278190080
19.175348 300.43311 129.67586 4278190080
438.61102 1014.064 963.83337 4278190080
57.714859 439.73187 963.24658 4278190080
153.28427 31.486853 584.43054 4278190080
427.54846 934.79254 3.5172853 4278190080
887.02386 625.83844 1010.5131 4278190080
53.318554 173.94324 566.41571 4278190080
852.75952 264.10861 453.91965 4278190080
996.07428 337.17221 885.76917 4278190080
713.01086 138.62598 151.74002 4278190080
217.15321 157.80133 452.17313 4278190080
346.82907 596.41235 442.23709 4278190080
286.66245 654.1272 881.96893 4278190080
225.90903 807.4115 913.45581 4278190080
810.33954 210.95996 824.24835 4278190080
813.85681 73.983833 426.08676 4278190080
800.36993 127.30239 600.03003 4278190080
342.78564 980.06195 864.13861 4278190080
796.70526 952.13623 177.31082 4278190080
658.47443 641.14703 315.9368 4278190080
810.21448 858.30029 473.73813 4278190080
238.38759 181.12936 46.150482 4278190080
680.62469 467.79181 700.27771 4278190080
538.59363 693.70081 483.68918 4278190080
428.04944 480.04037 694.64917 4278190080
228.29781 269.89719 768.633 4278190080
654.38458 46.267139 895.93536 4278190080
230.41458 389.0528 851.99731 4278190080
70.553207 161.75806 780.13354 4278190080
247.86403 820.23248 397.28058 4278190080
563.80084 606.44696 231.58087 4278190080
13.538962 844.83453 412.71024 4278190080
59.689445 501.45923 880.50201 4278190080
759.96716 16.052876 550.20282 4278190080
219.65633 444.10233 6.2432089 4278190080
914.30548 672.40015 276.14038 4278190080
658.93842 302.7847 322.40753 4278190080
530.87384 533.19928 711.46033 4278190080
358.87112 603.7525 873.21838 4278190080
115.00466 851.61652 669.45087 4278190080
512.28528 391.41736 251.89784 4278190080
743.86615 404.9563 72.732407 4278190080
132.57635 464.64575 574.19165 4278190080
1013.0784 200.61288 590.24451 4278190080
539.28125 420.26923 10.346841 4278190080
545.52441 310.57468 682.74695 4278190080
821.66486 969.51312 985.53168 4278190080
120.07236 476.38693 494.73093 4278190080
831.53265 835.25806 74.483421 4278190080
680.75104 950.26276 926.09991 4278190080
326.20193 438.54797 293.51727 4278190080
578.09979 158.41411 698.47357 4278190080
650.83215 290.99045 139.11934 4278190080
201.02382 280.06882 339.73224 4278190080
791.26831 819.35004 760.00146 4278190080
801.61517 340.87448 46.576118 4278190080
460.36215 138.53931 1016.0892 4278190080
421.8938 258.61166 468.47617 4278190080
916.62476 66.144348 279.73425 4278190080
991.10815 746.89539 205.99696 4278190080
893.20813 49.097328 644.54492 4278190080
162.72537 627.19708 802.95905 4278190080
861.19897 254.02927 69.949509 4278190080
1000.3183 455.0531 350.01834 4278190080
316.05054 222.32143 145.36839 4278190080
52.051971 1023.9366 486.24289 4278190080
98.62809 460.29874 624.78223 4278190080
90.717331 882.19257 883.39386 4278190080
559.19348 774.81726 949.53821 4278190080
838.92773 741.92548 672.43365 4278190080
20.924711 611.13354 721.53094 4278190080
665.46967 773.85895 324.72806 4278190080
444.42871 611.05792 578.75732 4278190080
514.37823 587.37622 9.8104105 4278190080
864.39661 903.4267 232.13184 4278190080
1009.765 955.4787 232.06844 4278190080
472.00787 30.106785 692.36719 4278190080
72.790062 120.82411 550.55969 4278190080
956.18396 680.01764 301.37698 4278190080
881.72217 494.94537 19.302448 4278190080
530.15582 515.87006 630.43597 4278190080
227.68677 157.33974 380.29492 4278190080
552.41479 601.76843 991.35284 4278190080
107.17214 92.14669 554.729 4278190080
116.98255 956.54327 434.15576 4278190080
349.11438 942.30823 365.63446 4278190080
581.1828 390.3161 395.74124 4278190080
249.54999 463.10617 516.56537 4278190080
800.10968 395.2901 172.58296 4278190080
77.486694 253.01228 667.52832 4278190080
96.789139 783.16809 159.39839 4278190080
727.22516 1010.8549 316.73813 4278190080
83.520073 539.26965 918.50659 4278190080
50.872902 646.44177 1010.6533 4278190080
605.60193 763.42438 943.19653 4278190080
15.757681 88.538734 861.50476 4278190080
381.39212 669.72156 227.82088 4278190080
777.13336 919.27155 690.92706 4278190080
269.6987 695.38123 62.217159 4278190080
442.28168 772.86792 315.22943 4278190080
85.809998 869.65704 74.397522 4278190080
245.20839 572.8822 61.252361 4278190080
561.94653 656.40228 600.52203 4278190080
456.45312 707.27521 222.96382 4278190080
443.10638 288.87711 986.38818 4278190080
362.30292 304.6348 50.92691 4278190080
199.80771 686.02692 720.64844 4278190080
427.6286 439.16028 615.91998 4278190080
94.555649 708.85901 287.30124 4278190080
156.77281 127.14066 36.169147 4278190080
472.00223 212.95067 905.82623 4278190080
546.39978 458.15906 454.7084 4278190080
607.6521 1020.1056 87.110695 4278190080
184.17415 452.55869 794.38586 4278190080
407.13797 895.6651 59.262985 4278190080
369.52615 233.96802 363.89777 4278190080
420.45306 433.77573 25.924702 4278190080
117.10152 861.40436 465.08499 4278190080
733.02148 955.95996 149.94398 4278190080
1020.3228 88.73278 277.08466 4278190080
32.49189 560.73505 490.03531 4278190080
938.31812 83.134789 948.19434 4278190080
369.02652 690.78693 944.29993 4278190080
456.13721 874.96106 372.85864 4278190080
226.52309 258.09903 244.52374 4278190080
285.78607 627.62518 478.49176 4278190080
649.68384 24.078209 912.26752 4278190080
675.60858 141.17972 749.67181 4278190080
116.69354 874.20123 681.63184 4278190080
266.63751 870.52399 770.36456 4278190080
543.72217 903.01587 307.09961 4278190080
9.7574749 817.33398 390.23441 4278190080
957.95184 162.36047 57.021317 4278190080
878.25177 618.49768 931.98236 4278190080
227.11043 845.02075 166.08139 4278190080
471.63419 106.80684 793.70654 4278190080
950.12592 756.49066 817.78473 4278190080
838.39343 408.09924 958.96448 4278190080
564.06525 524.79279 809.16571 4278190080
221.69708 791.4303 655.6897 4278190080
992.06165 311.15247 534.70557 4278190080
275.16129 320.90994 328.03952 4278190080
665.39569 254.86179 490.39999 4278190080
722.41699 109.11357 84.89769 4278190080
630.39935 336.224 929.91846 4278190080
796.48077 807.85815 12.725295 4278190080
566.18732 733.98413 769.216 4278190080
359.97208 548.37756 153.31523 4278190080
294.93655 88.442825 678.10803 4278190080
80.102272 310.13989 445.5383 4278190080
735.79199 278.20157 756.6908 4278190080
246.49753 553.36285 53.600731 4278190080
574.53705 194.75856 308.46252 4278190080
40.937046 917.17554 417.57608 4278190080
125.83473 523.57495 753.80011 4278190080
31.753187 296.05569 537.65826 4278190080
44.478481 862.24304 247.6424 4278190080
813.69446 198.21509 796.01996 4278190080
967.0097 493.15164 884.46277 4278190080
621.11768 573.25391 170.60269 4278190080
42.656017 285.04587 448.80426 4278190080
799.3468 531.5434 1002.1671 4278190080
852.94751 82.080444 172.92569 4278190080
137.41005 123.01749 66.10125 4278190080
554.98615 248.85222 589.67621 4278190080
284.78622 280.60541 885.73187 4278190080
822.44452 325.08389 723.97491 4278190080
46.086899 114.77836 922.19 4278190080
842.10687 57.788055 391.34161 4278190080
702.56964 678.90576 964.59552 4278190080
873.1723 721.56177 225.64142 4278190080
297.97659 496.90857 757.18481 4278190080
276.14374 325.85611 839.26526 4278190080
449.06943 463.26614 962.28278 4278190080
515.17065 1018.2523 187.13498 4278190080
80.84684 279.03851 467.74039 4278190080
966.57874 77.483017 792.82428 4278190080
666.55359 123.56992 907.60266 4278190080
564.74359 965.67676 965.39069 4278190080
956.08521 644.2464 620.29645 4278190080
896.68079 493.41873 317.85822 4278190080
98.322174 791.39532 814.76678 4278190080
855.50702 43.539055 116.62292 4278190080
670.77228 492.60846 579.8891 4278190080
609.05499 1007.7791 574.14136 4278190080
796.19 64.625969 853.17987 4278190080
239.93037 7.2046895 930.6629 4278190080
8.7546539 673.7583 30.23283 4278190080
916.3573 214.50191 995.90961 4278190080
857.74799 146.58713 616.15601 4278190080
454.04443 19.267891 85.574738 4278190080
771.90265 117.59007 876.97009 4278190080
562.66949 973.09705 920.50909 4278190080
679.29242 619.86932 389.11758 4278190080
235.18149 204.92433 372.89673 4278190080
809.32288 1001.1143 437.52267 4278190080
638.50275 217.04469 444.72739 4278190080
545.16565 225.79935 94.48568 4278190080
575.3985 118.15665 308.98758 4278190080
547.30811 975.90466 455.57471 4278190080
139.4641 405.94907 474.84262 4278190080
225.03885 153.85176 592.43268 4278190080
78.008911 716.52124 541.52972 4278190080
998.51801 371.81363 137.39906 4278190080
363.63562 606.99512 342.32339 4278190080
736.53235 392.31799 319.43771 4278190080
150.05502 6.8207312 536.48242 4278190080
594.78241 551.98639 762.28174 4278190080
689.26807 103.38488 880.43842 4278190080
998.25568 650.69299 832.34302 4278190080
429.83038 790.1571 214.29211 4278190080
904.67297 1015.1959 368.14386 4278190080
473.10568 69.204826 60.665104 4278190080
1014.6354 43.722858 432.47876 4278190080
128.03447 407.35849 15.473873 4278190080
470.35788 119.89082 407.79187 4278190080
789.79559 269.94583 414.61258 4278190080
302.27798 864.72821 966.599 4278190080
40.559738 529.99634 45.98386 4278190080
920.99811 504.25198 696.67682 4278190080
729.34119 934.08234 462.83392 4278190080
943.6333 814.75537 454.02982 4278190080
287.77713 263.86102 523.23468 4278190080
348.44226 254.49643 566.95752 4278190080
780.92102 382.53091 974.31598 4278190080
796.3949 852.88879 70.206802 4278190080
180.18672 618.68433 340.15265 4278190080
594.79932 920.96234 180.88087 4278190080
537.39832 961.52209 710.8772 4278190080
583.38214 858.5202 191.12917 4278190080
256.05899 563.86139 101.21152 4278190080
718.89288 483.49466 915.96686 4278190080
148.92273 771.27179 155.82788 4278190080
672.15735 95.714035 410.32431 4278190080
215.11488 876.63501 792.85522 4278190080
165.43088 649.02991 621.74402 4278190080
235.63768 829.21661 216.42834 4278190080
575.79034 400.01593 113.39068 4278190080
756.6712 937.41425 50.912746 4278190080
443.54837 496.79639 909.43292 4278190080
634.67755 752.85535 449.29431 4278190080
735.88904 447.74826 932.78894 4278190080
627.8559 596.67102 680.06073 4278190080
783.68384 244.82837 775.77478 4278190080
170.00813 459.94327 628.40979 4278190080
962.86334 625.37415 253.43971 4278190080
560.60736 861.01178 58.65633 4278190080
777.03571 412.80212 458.67227 4278190080
890.42639 145.47331 372.08649 4278190080
941.33911 589.02173 868.88287 4278190080
826.77209 199.69925 597.73828 4278190080
252.06639 935.58832 21.486526 4278190080
160.85536 539.44421 618.15753 4278190080
840.91614 299.12805 862.9859 4278190080
592.69092 469.13617 298.92917 4278190080
197.10071 407.99954 924.30328 4278190080
450.54044 968.60687 761.31506 4278190080
509.19675 721.64258 150.11722 4278190080
967.86902 588.06897 295.59055 4278190080
315.95551 505.40814 884.61224 4278190080
160.83839 308.18021 60.311478 4278190080
758.57666 560.24658 995.89978 4278190080
780.06317 721.10199 511.34402 4278190080
374.2207 538.01807 810.47205 4278190080
213.2066 106.70898 255.60825 4278190080
512.13574 303.80969 663.60779 4278190080
412.43906 754.3501 608.21466 4278190080
149.75415 239.54686 305.8573 4278190080
299.87137 183.41588 893.92627 4278190080
595.46191 499.3714 375.33441 4278190080
456.07413 660.20978 683.51465 4278190080
516.38562 394.78644 219.76125 4278190080
488.2854 150.84961 940.86322 4278190080
999.62939 525.07031 454.88129 4278190080
786.1015 738.27692 561.59027 4278190080
17.709713 226.41267 865.39996 4278190080
681.3175 638.85175 595.75006 4278190080
265.53217 788.6059 835.29694 4278190080
571.38947 64.477234 1018.7128 4278190080
441.31577 659.93915 494.0842 4278190080
816.65015 92.013252 130.29401 4278190080
476.16479 608.39886 525.08044 4278190080
695.92603 72.684258 675.93005 4278190080
612.78925 48.313663 177.00035 4278190080
43.670536 834.41516 915.27728 4278190080
605.2608 852.12488 117.68994 4278190080
446.66077 509.44235 756.54169 4278190080
18.410814 774.97455 521.14752 4278190080
853.70776 322.36398 585.62476 4278190080
848.42053 763.67975 221.5639 4278190080
318.50476 556.3299 313.57715 4278190080
448.79877 8.494709 921.97601 4278190080
973.87921 704.42078 994.66028 4278190080
625.80927 293.20999 18.973936 4278190080
802.80963 336.88052 853.3891 4278190080
694.08685 942.14136 681.51392 4278190080
811.77679 364.80209 166.95627 4278190080
544.31848 383.21289 941.93079 4278190080
41.466034 212.92064 240.29477 4278190080
627.09082 37.341194 1003.9745 4278190080
848.65472 355.84595 536.30444 4278190080
138.23187 804.64471 544.79913 4278190080
36.207886 754.52393 225.21988 4278190080
6.8681564 356.33319 518.42987 4278190080
25.842093 135.14279 855.31042 4278190080
879.23114 829.22968 773.45172 4278190080
536.74506 617.00647 114.25382 4278190080
703.70135 137.32498 497.46674 4278190080
621.63214 178.79102 710.38739 4278190080
861.92688 805.88184 747.72858 4278190080
841.90143 630.53656 79.574516 4278190080
354.20581 768.76837 884.21924 4278190080
899.00494 804.97626 614.74316 4278190080
100.22482 811.84442 971.07635 4278190080
618.65466 837.68652 82.219154 4278190080
449.96509 692.91772 911.44885 4278190080
199.41682 205.66278 504.45532 4278190080
313.67065 909.36414 641.78033 4278190080
811.13739 506.99628 820.57135 4278190080
497.52472 344.92316 602.45312 4278190080
221.2533 162.82457 208.98969 4278190080
300.82779 517.0304 977.75806 4278190080
161.04704 392.03534 758.73438 4278190080
775.79022 492.26013 546.5788 4278190080
722.86658 86.914825 360.26535 4278190080
805.08575 536.87988 29.183041 4278190080
692.53455 736.29675 234.84583 4278190080
172.98988 25.967379 120.20996 4278190080
814.7702 837.10474 627.20624 4278190080
611.34149 310.62949 972.12939 4278190080
189.79465 531.88275 110.95395 4278190080
398.78433 832.71057 627.98431 4278190080
352.54242 993.75763 1020.0197 4278190080
87.276772 745.54785 488.27979 4278190080
633.85559 444.4144 575.19464 4278190080
994.12091 225.50014 88.074524 4278190080
1023.304 918.03473 824.37128 4278190080
234.14978 67.024582 850.33862 4278190080
354.35974 881.7948 663.44336 4278190080
981.56598 469.13629 974.07288 4278190080
929.69537 658.93091 481.95563 4278190080
16.649296 33.715256 290.6662 4278190080
644.63361 386.25766 260.42383 4278190080
640.65326 473.53442 1005.9717 4278190080
104.93307 83.390015 426.38608 4278190080
680.12769 53.510933 651.88623 4278190080
768.20221 52.814896 545.9209 4278190080
568.57349 286.96469 612.9455 4278190080
394.91211 641.3244 470.74026 4278190080
34.35548 598.89038 939.87653 4278190080
1008.4283 504.58575 574.80743 4278190080
466.38397 521.23505 608.52271 4278190080
757.05017 141.86867 994.7804 4278190080
1017.474 782.52197 444.31482 4278190080
999.44568 887.45502 527.70483 4278190080
401.83173 543.5827 581.21576 4278190080
29.717934 287.78491 634.03064 4278190080
575.63885 856.3584 920.99536 4278190080
164.58434 227.27048 538.31976 4278190080
635.32458 261.62598 113.21016 4278190080
551.20111 246.05431 617.7959 4278190080
102.00858 712.43829 115.03095 4278190080
710.53131 445.48846 256.89963 4278190080
681.31171 438.96246 15.421564 4278190080
101.6265 414.40811 902.87659 4278190080
629.3313 816.23987 422.45929 4278190080
186.54709 845.95776 710.2442 4278190080
820.57776 397.59662 542.6026 4278190080
717.57306 562.18097 769.87305 4278190080
231.89284 173.50554 7.4990363 4278190080
345.103 724.70667 253.55334 4278190080
962.89893 826.71527 965.99164 4278190080
53.929859 513.24658 387.48007 4278190080
310.82947 170.55824 826.44257 4278190080
326.25104 272.18472 216.85066 4278190080
205.12762 901.51605 9.0905209 4278190080
627.58691 64.063133 855.04828 4278190080
313.83112 884.64087 228.64494 4278190080
856.43372 578.21393 790.82587 4278190080
602.30676 810.10681 964.33142 4278190080
609.80585 131.20979 665.03809 4278190080
863.35919 70.108696 467.75336 4278190080
805.35077 124.03856 980.99994 4278190080
168.83087 434.86804 127.55815 4278190080
995.27344 761.11908 399.74289 4278190080
188.12408 966.2467 277.25894 4278190080
197.2146 569.83362 341.32208 4278190080
28.262913 883.66473 201.96295 4278190080
256.90784 716.09845 780.17688 4278190080
23.733746 294.40524 566.28369 4278190080
988.06519 904.21106 697.49347 4278190080
629.10327 743.57025 767.60217 4278190080
72.856659 524.92102 891.64075 4278190080
29.856577 693.75189 302.50876 4278190080
157.41473 665.02533 39.627838 4278190080
557.15759 853.14941 1005.8745 4278190080
834.41656 26.364 551.70813 4278190080
151.73863 54.626915 411.37289 4278190080
353.70157 311.53476 103.47134 4278190080
109.87846 335.26852 397.87659 4278190080
676.16217 299.33371 278.08765 4278190080
349.65561 928.43701 1021.6579 4278190080
93.257774 1001.2936 522.57892 4278190080
984.8985 7.1502347 192.33083 4278190080
263.40726 164.56496 857.35614 4278190080
303.0351 721.7226 686.50555 4278190080
284.90964 532.1391 712.86951 4278190080
836.6178 683.87775 767.49646 4278190080
223.99069 13.579325 55.031208 4278190080
327.46204 123.45779 390.29971 4278190080
725.33862 799.61993 689.63342 4278190080
1003.4263 125.27554 594.07043 4278190080
1001.0842 218.53333 571.36407 4278190080
499.66312 179.43182 578.51428 4278190080
691.99396 442.83908 743.07928 4278190080
525.3501 745.87421 440.80185 4278190080
187.85561 6.7838411 972.94098 4278190080
900.72516 843.40161 632.81873 4278190080
644.22156 43.392334 646.39807 4278190080
699.25281 370.85437 769.85583 4278190080
65.552513 72.193008 545.47577 4278190080
755.18591 51.619301 670.75134 4278190080
325.25635 28.703495 889.28461 4278190080
896.62042 528.36664 44.716457 4278190080
451.13474 196.36057 487.55554 4278190080
170.214 721.71063 209.42975 4278190080
611.01587 909.56622 216.21358 4278190080
559.95685 786.29138 35.615227 4278190080
168.77556 406.51297 79.007561 4278190080
815.17358 81.765762 449.86194 4278190080
561.02942 147.31827 522.05493 4278190080
82.505219 902.50421 573.67426 4278190080
753.25653 203.76054 602.37775 4278190080
618.5412 76.380966 106.74436 4278190080
663.25763 527.51569 303.10492 4278190080
126.81317 697.72968 0.81555605 4278190080
336.24292 284.74554 910.38177 4278190080
552.45648 844.70239 672.67322 4278190080
588.07172 1013.4779 55.186157 4278190080
667.07928 804.65155 136.95192 4278190080
92.941223 341.68097 284.27017 4278190080
614.99615 424.18619 162.77438 4278190080
164.67041 153.44273 366.53494 4278190080
767.04816 771.98389 442.91589 4278190080
873.79254 411.24152 970.43158 4278190080
152.89743 538.05469 644.16125 4278190080
153.71298 874.29761 928.9068 4278190080
40.094791 402.75412 749.60919 4278190080
712.76801 990.82587 739.0871 4278190080
767.95416 633.90515 519.73865 4278190080
904.90607 726.84631 861.41962 4278190080
165.17624 317.8425 261.6058 4278190080
327.95062 482.51291 415.04855 4278190080
694.48553 225.56107 163.03244 4278190080
113.40145 75.353584 574.27399 4278190080
59.833035 228.25102 88.328667 4278190080
703.99432 381.96402 962.62628 4278190080
608.90112 422.05881 341.3804 4278190080
334.51031 110.82678 308.20624 4278190080
49.597424 878.78094 942.11139 4278190080
569.33606 759.68695 644.9577 4278190080
406.75568 924.86322 962.80023 4278190080
668.36151 228.81384 421.31314 4278190080
59.410023 923.29938 646.87421 4278190080
222.44246 12.700842 722.22778 4278190080
796.71643 72.533875 950.47882 4278190080
885.0451 776.5282 308.44281 4278190080
823.67139 361.42932 730.50165 4278190080
141.05179 695.93964 841.32843 4278190080
449.25803 745.53705 696.10931 4278190080
367.36938 290.87311 431.7963 4278190080
1012.3271 697.62878 332.65948 4278190080
951.12732 341.99026 561.47333 4278190080
348.44043 401.4003 460.77274 4278190080
995.31464 623.84277 473.47357 4278190080
693.54242 396.55917 546.00745 4278190080
620.02124 257.60428 298.53564 4278190080
928.46405 57.275665 659.96497 4278190080
634.9657 198.32745 331.90457 4278190080
452.29407 647.58545 53.441639 4278190080
124.40339 1014.9548 344.31476 4278190080
556.19971 1003.2819 17.94355 4278190080
888.85919 930.40924 359.93384 4278190080
426.33252 254.84967 761.33411 4278190080
887.10522 226.16431 361.17688 4278190080
336.57883 919.70673 757.73608 4278190080
882.58624 515.72797 1015.3403 4278190080
157.12189 420.19202 48.616013 4278190080
817.08685 31.157677 246.94347 4278190080
124.99142 483.45175 894.52893 4278190080
178.43306 607.85516 885.48376 4278190080
522.7478 140.05482 864.76575 4278190080
540.69135 4.9140029 771.17499 4278190080
900.62518 431.24652 2.0246429 4278190080
637.95929 294.35178 228.18895 4278190080
999.13617 630.9306 123.89568 4278190080
732.87225 489.51685 639.62366 4278190080
724.21259 646.63873 35.815636 4278190080
772.82861 439.72559 66.973312 4278190080
1019.7721 564.71698 550.42505 4278190080
890.30103 743.15009 134.2802 4278190080
751.78479 241.89789 274.33502 4278190080
592.55054 782.58923 279.24902 4278190080
339.72546 659.21448 710.49554 4278190080
341.75012 273.17377 1004.8473 4278190080
569.93909 248.30995 611.77789 4278190080
693.83472 981.18219 77.294739 4278190080
309.45837 681.39478 723.93347 4278190080
345.27402 430.22339 139.65906 4278190080
412.24731 425.99545 704.3761 4278190080
962.67236 292.29645 423.52615 4278190080
72.952568 20.081236 665.42401 4278190080
347.2876 612.63177 424.01331 4278190080
626.53662 952.35724 59.227753 4278190080
313.03217 270.10736 332.40152 4278190080
293.87946 840.04639 580.71149 4278190080
905.65735 509.88116 537.89368 4278190080
982.95209 819.33954 195.28847 4278190080
682.88556 140.61353 625.51184 4278190080
822.54462 552.86084 27.507318 4278190080
502.92072 491.5332 319.80377 4278190080
926.44684 564.48578 339.88501 4278190080
567.87091 911.77338 952.51678 4278190080
991.88416 514.31 880.87396 4278190080
27.111931 827.34216 126.98132 4278190080
359.51346 97.221603 967.02777 4278190080
940.22491 1002.879 452.90891 4278190080
454.11859 961.83105 248.24843 4278190080
649.40704 620.71661 388.86197 4278190080
250.91891 419.26126 941.72284 4278190080
278.42624 922.18195 409.25604 4278190080
598.22998 824.62878 973.74182 4278190080
938.11499 368.49969 861.5152 4278190080
866.63177 336.38388 351.82516 4278190080
723.50574 363.49579 155.16731 4278190080
850.48706 723.00928 252.38892 4278190080
793.51483 639.23419 231.26787 4278190080
222.42372 69.352753 169.09892 4278190080
470.67215 718.75983 789.81555 4278190080
859.53412 969.67871 185.0768 4278190080
777.2569 224.10493 83.258759 4278190080
162.51295 822.33496 907.88757 4278190080
112.25476 736.44995 252.38727 4278190080
973.76996 579.08173 588.77112 4278190080
301.59512 278.58746 952.26697 4278190080
456.76245 105.07454 651.27618 4278190080
709.15137 898.58936 266.51035 4278190080
940.41925 97.013069 335.86313 4278190080
85.518143 567.68524 30.622921 4278190080
875.33368 403.21933 1000.3016 4278190080
36.41048 156.47626 200.40657 4278190080
119.66924 318.9892 1022.7415 4278190080
3.5568123 431.24396 735.19147 4278190080
255.94408 381.01392 290.27316 4278190080
844.71521 682.60907 568.86066 4278190080
772.98218 115.3715 673.93518 4278190080
400.25836 824.52283 548.52454 4278190080
666.76874 740.94208 645.5376 4278190080
1002.6318 826.46021 189.22281 4278190080
9.2547474 677.79395 592.44214 4278190080
1009.5564 714.20441 748.9184 4278190080
185.96295 833.87366 43.907589 4278190080
184.70447 837.43042 475.15155 4278190080
919.89594 69.374527 856.16547 4278190080
186.1691 914.08972 514.77454 4278190080
755.02972 663.0719 630.146 4278190080
404.9649 39.330257 430.66888 4278190080
953.48944 706.09894 147.61096 4278190080
575.02704 684.73077 974.07117 4278190080
764.24982 693.98553 627.86511 4278190080
332.69199 679.54193 318.06949 4278190080
57.610367 865.50488 127.94314 4278190080
101.51796 26.209339 965.3736 4278190080
576.66949 946.10529 10.748119 4278190080
408.83499 108.27436 924.83789 4278190080
923.6095 863.30408 563.90979 4278190080
529.75555 244.269 603.24005 4278190080
960.42438 173.75844 285.33899 4278190080
84.03537 748.78546 970.06976 4278190080
34.10656 489.03531 640.05536 4278190080
661.97168 821.72729 295.59726 4278190080
980.0412 879.33765 137.10213 4278190080
83.984314 980.85559 163.31148 4278190080
25.357903 533.52515 85.416733 4278190080
36.106022 942.36011 193.6911 4278190080
960.94391 841.9696 32.99519 4278190080
500.85367 347.72513 277.26419 4278190080
80.093681 284.14954 451.02261 4278190080
365.43268 368.18491 175.80809 4278190080
311.50247 402.29147 664.84338 4278190080
951.5578 40.263145 462.57068 4278190080
223.15506 1020.3043 317.90833 4278190080
360.2572 80.288628 274.76392 4278190080
523.56866 105.64653 808.28906 4278190080
608.98541 141.75255 726.64917 4278190080
802.67651 78.696434 544.61877 4278190080
835.67169 579.55011 892.34393 4278190080
88.935875 659.6438 152.49345 4278190080
539.9585 1.0764532 520.67841 4278190080
715.7666 312.57892 922.96985 4278190080
356.60999 240.13672 963.23297 4278190080
819.18066 463.29178 959.53729 4278190080
113.08897 823.54895 15.825937 4278190080
387.85291 323.11761 121.47247 4278190080
172.14195 932.10303 263.22501 4278190080
898.79114 710.77954 341.92145 4278190080
419.40988 522.45117 921.47156 4278190080
287.75378 611.38708 557.1153 4278190080
440.24725 127.34557 558.19177 4278190080
960.9256 843.11218 870.77069 4278190080
859.89545 175.72214 86.90741 4278190080
799.12848 994.90277 550.19916 4278190080
734.66577 83.991776 349.74814 4278190080
750.4917 471.8447 672.86578 4278190080
871.96417 643.98663 580.96881 4278190080
111.18919 518.77777 267.74832 4278190080
453.11066 938.18762 790.19952 4278190080
350.58218 201.94141 377.58658 4278190080
907.69751 642.18866 504.93216 4278190080
441.88928 579.11426 324.04431 4278190080
288.65997 415.00974 499.76645 4278190080
375.56738 190.1382 470.66925 4278190080
925.7666 924.80396 554.66101 4278190080
251.51472 651.29572 2.5057225 4278190080
924.38049 499.25986 646.49237 4278190080
481.3493 610.44904 141.27011 4278190080
749.0976 39.559704 55.457729 4278190080
515.29712 390.14191 257.39914 4278190080
892.88373 273.83942 899.58777 4278190080
373.81586 715.7287 454.70203 4278190080
697.86017 1004.3887 869.71179 4278190080
173.62663 355.95605 35.849957 4278190080
644.2959 257.72263 960.65393 4278190080
174.95692 509.23734 587.94958 4278190080
177.46265 409.61783 63.209476 4278190080
823.95502 890.9671 673.65851 4278190080
965.2251 616.06476 713.21826 4278190080
1020.6829 107.36185 79.36013 4278190080
254.08199 1000.2455 353.19952 4278190080
129.66977 350.06143 44.928223 4278190080
584.37183 23.921591 25.316885 4278190080
430.08356 197.54822 381.27295 4278190080
465.93353 841.84412 638.99554 4278190080
402.58746 1016.801 124.2329 4278190080
990.53705 170.26369 533.85071 4278190080
29.74654 994.21869 400.81787 4278190080
703.40509 935.44385 1016.8826 4278190080
392.62332 932.12671 100.24446 4278190080
471.98346 162.20866 76.490021 4278190080
825.18298 291.87842 426.55142 4278190080
870.11121 876.25024 450.47302 4278190080
895.4281 282.3338 648.02124 4278190080
252.70102 748.26733 465.86536 4278190080
891.69659 126.85477 458.66641 4278190080
1015.9295 93.391823 628.93011 4278190080
525.78021 123.13837 599.1488 4278190080
926.59808 826.54346 510.59262 4278190080
919.48071 195.16676 418.7193 4278190080
1019.7252 667.15021 580.92798 4278190080
72.215157 468.33319 872.8064 4278190080
498.7666 314.4444 725.05664 4278190080
949.23962 185.8725 1007.3904 4278190080
573.26086 438.57352 731.65771 4278190080
15.126235 306.27011 858.51251 4278190080
473.79263 298.19958 951.90436 4278190080
78.722725 823.9798 51.042698 4278190080
677.87152 726.57788 877.58612 4278190080
164.46414 622.05859 48.752899 4278190080
583.18347 617.78369 715.90314 4278190080
140.11142 689.9989 160.2363 4278190080
1012.9178 164.76547 474.68069 4278190080
713.97443 90.005096 660.55322 4278190080
697.36487 663.26599 75.126724 4278190080
405.02261 678.39221 381.39682 4278190080
239.53513 128.18484 679.59644 4278190080
167.43947 206.90758 479.57623 4278190080
218.48216 884.77911 182.15413 4278190080
72.068298 25.243233 804.21271 4278190080
120.8212 608.4267 397.99643 4278190080
836.7243 748.53809 63.9953 4278190080
996.96063 737.45593 228.76077 4278190080
447.64133 427.43036 318.76587 4278190080
84.194519 100.79523 982.03186 4278190080
159.32124 505.81784 636.42407 4278190080
540.71808 745.35297 764.60889 4278190080
196.3145 912.79242 971.51648 4278190080
675.89075 107.2746 832.29553 4278190080
858.04486 179.34291 857.53882 4278190080
638.25757 300.16409 441.96545 4278190080
12.253983 112.88841 166.50356 4278190080
76.249283 85.84903 903.95947 4278190080
305.01007 533.49036 307.3898 4278190080
623.77594 617.68488 408.18503 4278190080
581.8078 777.0061 914.00287 4278190080
194.23183 293.72418 635.3559 4278190080
958.8407 490.0387 524.14832 4278190080
906.35718 141.92941 631.42291 4278190080
714.65277 999.9743 810.76581 4278190080
548.19153 614.23181 86.929947 4278190080
990.15698 626.48584 199.81836 4278190080
132.66057 702.73511 285.66739 4278190080
12.620022 1007.7452 819.15771 4278190080
320.00983 607.52112 412.84259 4278190080
728.19489 165.32886 165.84871 4278190080
618.19775 359.5607 459.57288 4278190080
229.55363 294.40143 949.61157 4278190080
753.70197 176.75862 67.540985 4278190080
361.12488 891.41138 43.515263 4278190080
147.89072 415.60291 657.74707 4278190080
234.82066 381.75992 260.23291 4278190080
434.63904 514.42047 962.96802 4278190080
720.3064 527.04053 946.7132 4278190080
515.46411 847.05035 530.23425 4278190080
928.30676 551.24524 695.56311 4278190080
70.155434 145.44298 31.123833 4278190080
529.72833 374.99661 325.52524 4278190080
455.3399 104.69857 502.28387 4278190080
522.88086 465.82346 369.69525 4278190080
566.39612 613.71417 785.29816 4278190080
200.14325 848.53485 143.05807 4278190080
460.37616 259.17386 657.47858 4278190080
399.34418 979.48029 160.51909 4278190080
322.05737 470.94443 1007.5695 4278190080
852.29163 375.25116 534.81464 4278190080
523.8548 445.40659 680.25763 4278190080
554.97864 975.13489 31.254246 4278190080
880.50385 406.47482 135.95282 4278190080
358.78775 929.35571 601.77625 4278190080
728.48297 471.75183 191.49045 4278190080
489.78113 671.89508 16.025288 4278190080
632.83923 108.27126 275.19916 4278190080
266.31778 507.61545 230.67943 4278190080
426.83688 829.67285 701.62384 4278190080
410.40631 657.96448 52.875004 4278190080
945.22101 157.81926 498.28159 4278190080
601.47864 712.79791 449.4165 4278190080
632.73285 569.30176 855.8913 4278190080
768.68567 928.08948 761.24701 4278190080
346.46194 632.57245 208.99886 4278190080
537.95239 98.353607 880.89392 4278190080
553.97766 731.19281 989.16522 4278190080
829.17682 997.51062 472.78067 4278190080
35.85627 400.3475 278.45349 4278190080
737.4801 810.75385 936.41797 4278190080
790.3551 731.97479 70.237236 4278190080
264.63672 309.45343 783.0351 4278190080
714.05322 942.18628 328.33688 4278190080
545.94452 686.87195 232.42638 4278190080
283.19156 9.3339176 864.99884 4278190080
492.19043 547.28632 963.35248 4278190080
349.08438 77.263992 670.54529 4278190080
314.24957 906.44086 644.05591 4278190080
787.03027 942.29712 20.403378 4278190080
41.483746 655.77722 831.15723 4278190080
977.90173 422.13235 539.13202 4278190080
24.138956 686.76904 848.58545 4278190080
807.17407 376.8223 766.77173 4278190080
111.51095 922.76685 429.64368 4278190080
343.93732 181.9584 438.9776 4278190080
184.93616 674.1488 986.26392 4278190080
124.28861 1023.2332 39.527912 4278190080
794.83386 313.48279 945.96875 4278190080
414.88977 76.513031 864.26587 4278190080
435.29315 117.99678 496.04306 4278190080
242.45035 71.898499 918.17542 4278190080
781.58234 96.037453 580.94446 4278190080
606.16779 903.21155 957.76672 4278190080
348.93948 1014.7225 856.53357 4278190080
778.58319 334.65979 14.491982 4278190080
193.56079 519.59595 688.64081 4278190080
155.82471 643.88458 687.87402 4278190080
195.35262 414.71848 1001.3568 4278190080
117.32136 829.60822 53.869804 4278190080
981.58722 240.90137 171.86658 4278190080
453.63025 483.35172 243.76508 4278190080
347.80566 240.93407 339.80255 4278190080
928.75012 847.10187 219.01407 4278190080
862.51685 172.04134 209.73654 4278190080
695.05048 950.62451 544.39636 4278190080
709.54242 120.1853 39.99231 4278190080
374.18323 276.01001 683.87689 4278190080
38.05722 471.36261 74.595345 4278190080
15.413996 588.68396 904.20355 4278190080
69.283798 546.27118 121.10494 4278190080
241.15039 999.90143 604.45667 4278190080
484.91547 323.70709 845.39069 4278190080
824.71802 228.4572 668.49255 4278190080
19.732073 66.974068 840.53387 4278190080
229.46861 762.02454 767.15839 4278190080
773.86499 447.56696 887.34369 4278190080
813.8573 821.75018 139.3537 4278190080
473.73416 859.80737 610.71631 4278190080
548.32953 875.22137 175.4003 4278190080
428.53308 944.50519 721.67145 4278190080
549.638 161.65558 697.57294 4278190080
130.09467 646.57104 1021.28 4278190080
975.48535 447.28906 225.7372 4278190080
619.97791 467.02112 292.71127 4278190080
436.51181 696.48975 30.735771 4278190080
179.67021 446.35471 478.3027 4278190080
43.013912 236.21198 276.05289 4278190080
182.36761 709.94611 111.86028 4278190080
793.08392 234.27563 987.08167 4278190080
968.48425 662.80872 907.58685 4278190080
666.1557 188.44672 45.242424 4278190080
339.72864 318.54138 691.81348 4278190080
337.00864 270.02676 115.10252 4278190080
562.74585 890.0047 582.12366 4278190080
855.45709 302.51651 254.61339 4278190080
886.19287 482.18671 700.96808 4278190080
340.49557 525.20062 937.18005 4278190080
616.54846 707.56824 623.12616 4278190080
728.40869 476.65219 857.40179 4278190080
691.49036 421.13644 496.21051 4278190080
575.07721 63.292164 684.65723 4278190080
620.31964 403.02078 1003.1986 4278190080
288.13312 740.02942 249.22537 4278190080
403.23563 278.77524 115.23006 4278190080
985.35925 110.23232 417.74655 4278190080
215.97266 996.42517 899.93329 4278190080
916.94073 312.92075 401.13388 4278190080
830.12079 929.46918 84.702133 4278190080
429.24698 633.87793 561.35431 4278190080
262.6488 301.36829 982.49078 4278190080
758.85931 876.4455 21.782921 4278190080
419.51654 472.76517 424.80371 4278190080
398.71515 760.89825 140.83315 4278190080
647.94055 140.13391 419.60837 4278190080
763.17059 101.49319 529.8407 4278190080
156.91713 317.46585 502.26587 4278190080
32.850399 210.4066 815.18658 4278190080
433.98428 16.527397 720.65576 4278190080
518.6864 445.77438 330.53369 4278190080
56.040741 708.42322 631.90198 4278190080
14.5315 443.2825 484.34747 4278190080
36.314423 862.79907 957.11261 4278190080
461.11813 237.51422 694.01093 4278190080
601.95129 885.45477 834.14484 4278190080
1021.5596 624.62537 935.638 4278190080
527.40033 781.54248 229.10387 4278190080
5.6662335 814.39288 439.51047 4278190080
820.85284 224.37717 456.03787 4278190080
517.50867 743.0636 901.81226 4278190080
848.04236 799.10431 586.23547 4278190080
455.94431 813.6358 5.5179601 4278190080
940.29175 849.95026 868.31702 4278190080
873.40442 287.06839 81.831253 4278190080
543.41534 889.01965 967.28601 4278190080
353.56015 886.57935 567.91138 4278190080
265.19815 389.97968 325.45383 4278190080
494.30203 395.6459 115.84669 4278190080
933.8125 192.49875 340.22385 4278190080
365.85037 710.00739 59.28743 4278190080
243.66263 534.04974 858.39172 4278190080
829.89807 989.99402 648.02759 4278190080
835.41602 906.28577 473.97781 4278190080
679.73303 755.69019 761.0462 4278190080
761.56433 275.10553 626.06586 4278190080
704.85034 628.66565 488.64517 4278190080
248.76167 893.86383 878.62488 4278190080
574.21552 364.16586 250.27077 4278190080
690.06219 273.97836 442.76953 4278190080
6.2860312 639.82874 128.77692 4278190080
65.573463 883.49139 662.82666 4278190080
923.96521 689.38947 628.82068 4278190080
547.9928 500.80548 511.10648 4278190080
1021.9706 156.53856 242.79666 4278190080
759.01685 918.10284 517.90216 4278190080
361.08267 598.95319 122.56785 4278190080
849.72784 847.71484 1016.4317 4278190080
704.35272 397.93036 356.59753 4278190080
954.62347 63.992538 630.57593 4278190080
373.39304 70.278564 246.40466 4278190080
502.16995 135.85204 105.89605 4278190080
140.9966 35.817245 795.28552 4278190080
769.81726 583.81006 272.091 4278190080
256.92374 581.78064 428.62955 4278190080
499.7204 316.79745 322.73242 4278190080
1017.6226 677.88013 921.68561 4278190080
116.19042 503.608 745.40045 4278190080
108.6221 183.96074 119.33083 4278190080
465.21964 114.58424 183.32336 4278190080
71.795563 487.97726 253.60194 4278190080
318.20023 990.14722 389.45398 4278190080
424.09628 107.14381 425.27121 4278190080
195.38179 876.96106 1009.0812 4278190080
467.47278 109.8848 566.86188 4278190080
896.10229 609.60516 883.65936 4278190080
194.83475 603.22778 537.53955 4278190080
92.520355 719.41815 17.147537 4278190080
837.92084 828.04028 201.10828 4278190080
957.25165 269.25992 315.6925 4278190080
116.57504 341.05548 803.6698 4278190080
370.17697 659.25574 769.81702 4278190080
759.63092 59.352009 876.96082 4278190080
160.90216 254.7338 729.92188 4278190080
145.98341 722.20654 839.80664 4278190080
712.84534 594.3089 425.41183 4278190080
572.5047 789.14362 4.6396065 4278190080
86.044212 881.664 724.0578 4278190080
103.19175 695.58484 528.09808 4278190080
304.30002 628.83649 797.35797 4278190080
619.99255 745.4115 114.41349 4278190080
399.66232 91.588493 773.66925 4278190080
145.47931 851.21942 833.02124 4278190080
1022.4401 1012.1216 63.75502 4278190080
728.362 134.105 785.96161 4278190080
544.16864 846.95032 356.27048 4278190080
969.58051 395.45502 121.41412 4278190080
974.22009 481.49924 1003.0781 4278190080
674.27789 584.69098 674.6629 4278190080
178.37595 888.99103 279.49942 4278190080
975.73395 484.98355 0.9109416 4278190080
66.147446 884.64587 92.499435 4278190080
839.81665 6.1251645 943.71887 4278190080
648.83789 4.5652704 931.84045 4278190080
712.5929 732.92725 41.945465 4278190080
474.5545 253.09589 888.89581 4278190080
830.82501 198.67638 260.3508 4278190080
952.23914 148.89647 741.85004 4278190080
931.3172 823.17438 302.54099 4278190080
581.98016 1001.5503 167.532 4278190080
861.47955 953.28424 652.51556 4278190080
862.3905 1019.4317 513.16138 4278190080
954.88995 835.24835 519.28656 4278190080
874.60883 460.08627 523.85181 4278190080
782.44928 148.67918 232.77908 4278190080
824.39478 623.2337 485.87497 4278190080
689.29053 430.05869 684.55133 4278190080
949.64136 358.29779 833.44781 4278190080
667.49133 265.61499 632.62219 4278190080
970.03235 847.59515 610.17249 4278190080
113.56434 685.07471 539.45673 4278190080
766.0799 523.46521 534.88843 4278190080
255.24127 454.35519 346.13681 4278190080
774.52783 304.96402 806.22308 4278190080
274.37967 63.413288 954.90228 4278190080
507.15872 887.80804 554.13599 4278190080
993.03369 553.09857 984.19464 4278190080
653.58502 478.7399 318.49243 4278190080
463.03284 122.23124 584.10742 4278190080
71.655022 68.26358 407.70261 4278190080
681.82751 181.82791 68.777321 4278190080
197.28424 947.90778 592.24255 4278190080
732.17267 179.14906 22.597744 4278190080
54.309513 953.67688 327.56174 4278190080
860.53259 204.05655 390.97504 4278190080
791.43488 711.21527 254.78308 4278190080
321.57086 680.24896 807.88165 4278190080
281.7655 309.83401 262.62155 4278190080
600.25793 772.86688 384.85278 4278190080
160.36537 844.52185 453.11636 4278190080
568.06799 502.34937 634.94427 4278190080
636.84528 699.63361 558.85205 4278190080
205.08784 407.8063 738.00116 4278190080
227.68559 462.11581 667.67804 4278190080
555.24738 298.64841 871.73456 4278190080
946.22241 66.083298 558.94983 4278190080
177.00546 387.65414 215.19881 4278190080
984.88708 669.41968 525.03284 4278190080
223.50864 245.6776 273.89966 4278190080
608.36145 406.04297 94.421539 4278190080
37.477791 974.11096 596.77094 4278190080
672.42206 586.95624 272.40454 4278190080
207.27415 792.04407 680.21082 4278190080
945.27527 1019.7297 118.32664 4278190080
588.95331 550.97705 416.97507 4278190080
436.68787 473.19943 483.05835 4278190080
995.6377 650.2049 870.71252 4278190080
186.8365 611.09198 516.13214 4278190080
711.86932 834.60065 761.80975 4278190080
985.76898 418.96207 143.85274 4278190080
56.190529 456.43985 93.963684 4278190080
652.96143 104.86192 680.91992 4278190080
925.36597 312.13608 448.96402 4278190080
581.57678 233.41135 444.6937 4278190080
699.90344 822.36469 995.67072 4278190080
92.878494 235.05252 444.87015 4278190080
575.93683 206.69022 71.075043 4278190080
422.64935 393.52673 682.16705 4278190080
938.78156 81.396049 492.76764 4278190080
676.59131 43.165039 911.72968 4278190080
820.44403 99.355568 344.16956 4278190080
914.40771 752.31702 449.03146 4278190080
571.32764 653.68298 761.16754 4278190080
1020.2916 211.25978 994.57892 4278190080
440.98535 911.16321 792.94354 4278190080
412.65607 1004.0417 3.9960694 4278190080
857.52625 555.97858 210.68629 4278190080
928.60126 978.62793 604.21301 4278190080
586.76831 893.40948 685.60907 4278190080
55.535965 546.00073 728.77411 4278190080
967.26569 342.44476 828.1297 4278190080
287.43521 232.85246 556.44672 4278190080
736.46667 804.18011 186.12968 4278190080
473.63422 800.47174 397.38947 4278190080
444.2131 217.45706 284.5527 4278190080
213.15666 630.11316 264.59442 4278190080
217.15273 463.6394 820.573 4278190080
427.83902 368.24066 775.20093 4278190080
8.0520449 955.00897 644.61035 4278190080
693.66113 1010.5449 166.61113 4278190080
398.43524 953.81061 509.05591 4278190080
202.56491 217.24583 741.90839 4278190080
759.0116 953.71252 522.08844 4278190080
945.1413 403.34674 298.56018 4278190080
318.53076 847.55988 516.01727 4278190080
603.08344 36.716515 122.1304 4278190080
867.67786 253.86925 585.76978 4278190080
664.25085 681.70825 954.0105 4278190080
415.45178 689.76031 885.01947 4278190080
36.06216 359.42142 871.56439 4278190080
202.67329 757.85669 801.375 4278190080
711.72919 960.42157 1018.6208 4278190080
429.63754 695.43317 948.33337 4278190080
951.72601 616.57446 327.68011 4278190080
226.28619 935.10522 151.23999 4278190080
742.30347 514.18872 187.9565 4278190080
864.43384 357.86658 441.82574 4278190080
426.20364 1022.1174 99.534012 4278190080
356.21411 413.56921 789.29431 4278190080
217.23357 449.63138 124.71576 4278190080
64.797966 652.30469 882.57239 4278190080
866.17297 340.03384 818.99402 4278190080
860.79382 769.67139 490.42719 4278190080
785.1272 697.3974 83.001648 4278190080
88.807358 923.68359 1018.1069 4278190080
240.04735 641.98706 508.29559 4278190080
428.00385 482.42087 866.16217 4278190080
869.82959 908.62451 864.2796 4278190080
969.36359 240.83862 253.84885 4278190080
734.65796 458.07217 703.48022 4278190080
859.37366 522.87012 331.78491 4278190080
717.94611 365.04312 671.81879 4278190080
512.94006 201.83698 417.49017 4278190080
1003.3672 986.96417 90.887573 4278190080
62.368908 51.771553 1014.5712 4278190080
56.475792 291.81891 632.55817 4278190080
564.77136 719.82275 90.979073 4278190080
406.93353 565.65234 999.60358 4278190080
247.21315 511.01593 216.4422 4278190080
501.06198 221.67386 674.5144 4278190080
180.54222 57.047554 173.38454 4278190080
512.32715 774.99365 538.42767 4278190080
160.14589 263.93375 740.26465 4278190080
577.63605 243.30101 703.22882 4278190080
668.52362 305.66992 755.00037 4278190080
659.09479 362.14572 22.819284 4278190080
267.65298 926.91711 742.64203 4278190080
358.63208 309.85065 284.29434 4278190080
334.23566 557.06378 795.3103 4278190080
550.67786 34.125782 1016.9841 4278190080
201.19225 214.668 50.031708 4278190080
374.57678 726.99512 825.02539 4278190080
913.00446 887.14105 64.959122 4278190080
629.26904 440.7771 308.26013 4278190080
308.49789 85.300735 613.93005 4278190080
39.498287 744.39557 976.07574 4278190080
62.317574 1012.0485 878.99286 4278190080
804.95959 346.6806 164.84351 4278190080
65.253952 680.91626 721.90729 4278190080
860.56421 207.5941 756.03308 4278190080
853.5484 408.78635 970.70111 4278190080
903.58008 783.3631 673.69623 4278190080
704.60547 672.36755 536.83722 4278190080
769.56458 277.63663 977.61432 4278190080
53.824722 586.13452 38.915077 4278190080
667.75476 625.63281 783.31061 4278190080
619.83057 687.95038 771.35913 4278190080
474.82343 468.90997 94.039757 4278190080
639.66693 534.16394 774.95599 4278190080
337.57422 370.72818 982.55011 4278190080
69.607292 200.27657 367.33646 4278190080
16.308376 79.856659 126.69957 4278190080
690.00458 784.46216 799.06714 4278190080
202.84184 530.02673 52.703735 4278190080
156.45618 583.85144 638.83826 4278190080
195.37126 227.60622 240.47105 4278190080
978.68188 847.43677 928.42145 4278190080
726.04102 298.26019 373.33142 4278190080
820.08081 937.92712 907.49536 4278190080
571.0368 251.50133 254.2235 4278190080
529.58691 321.10861 454.50006 4278190080
896.92334 337.41699 534.35675 4278190080
1023.6229 3.4215922 294.81885 4278190080
798.69006 206.26343 824.84558 4278190080
851.3938 362.7196 384.69702 4278190080
466.23203 558.09088 612.30322 4278190080
706.70306 512.77277 435.73999 4278190080
611.12451 214.81377 734.00018 4278190080
984.45593 10.894558 647.92731 4278190080
867.95129 581.93134 899.42865 4278190080
98.174767 87.51825 196.53726 4278190080
552.6748 984.44159 533.95428 4278190080
63.031555 984.06451 537.37585 4278190080
357.8504 758.75458 743.63928 4278190080
158.69598 586.14838 82.358894 4278190080
543.39301 28.3804 640.44977 4278190080
131.69623 735.0835 129.2225 4278190080
567.43622 322.20801 344.03629 4278190080
277.43643 282.66394 354.93082 4278190080
925.36371 126.61522 936.86218 4278190080
800.79236 224.78999 0.38042879 4278190080
997.32965 777.46484 984.82202 4278190080
507.28391 840.4964 944.88654 4278190080
20.659746 174.34677 679.64111 4278190080
764.29901 333.04276 241.78951 4278190080
846.6579 876.43579 270.16992 4278190080
463.10767 1008.132 1005.2534 4278190080
592.3302 551.56824 303.46143 4278190080
936.36646 829.00464 586.12537 4278190080
267.29727 730.36841 712.7406 4278190080
180.15945 507.16077 937.53058 4278190080
180.53989 480.49039 690.99536 4278190080
141.36192 987.77429 507.49176 4278190080
62.248489 1008.434 681.83856 4278190080
741.88965 748.73303 1014.8813 4278190080
983.67914 571.39099 867.31708 4278190080
229.84904 10.498653 851.44904 4278190080
211.10245 602.82886 379.01727 4278190080
514.56384 515.19531 184.02193 4278190080
