# .PCD v0.7 - Point Cloud Data file format
VERSION 0.7
FIELDS x y z rgb
SIZE 4 4 4 4
TYPE F F F U
COUNT 1 1 1 1
WIDTH 1199
HEIGHT 1
VIEWPOINT 0 0 0 1 0 0 0
POINTS 1199
DATA ascii
-0.54545498 14.318182 -37.236362 4278190080
-0.090651996 14.27762 -37.130878 4278190080
0.81818199 14.318182 -37.236362 4278190080
4.231823 5.310853 -13.811591 4278190080
24.25 19.6875 -51.200001 4278190080
25.125 19.6875 -51.200001 4278190080
25.125 19.6875 -51.200001 4278190080
29 19.6875 -51.200001 4278190080
-12.207171 10.007968 -26.109961 4278190080
-3.350738 2.851305 -7.4388189 4278190080
-0.95454502 14.272727 -37.236362 4278190080
-0.68181801 14.272727 -37.236362 4278190080
-0.45454499 14.272727 -37.236362 4278190080
0.226629 14.232295 -37.130878 4278190080
0.31818199 14.272727 -37.236362 4278190080
25.3125 19.625 -51.200001 4278190080
29.875 19.625 -51.200001 4278190080
-11.753846 9.6307688 -25.206154 4278190080
-10.888086 9.039711 -23.659206 4278190080
-13.006928 11.56582 -30.27067 4278190080
-0.409091 14.227273 -37.236362 4278190080
23.75 19.5625 -51.200001 4278190080
24.625 19.5625 -51.200001 4278190080
30.0625 19.5625 -51.200001 4278190080
-11.309833 9.2615957 -24.317625 4278190080
-13.714286 12.511278 -32.850124 4278190080
3.6721311 5.1147542 -13.429508 4278190080
23.375 19.5 -51.200001 4278190080
23.375 19.5 -51.200001 4278190080
28.875 19.5 -51.200001 4278190080
29 19.5 -51.200001 4278190080
29 19.5 -51.200001 4278190080
-10.954955 8.965766 -23.616577 4278190080
-1.265537 14.056498 -37.02599 4278190080
-1.133144 14.096317 -37.130878 4278190080
-0.86363602 14.136364 -37.236362 4278190080
4.0041189 5.1246138 -13.498661 4278190080
7.6875 9.71875 -25.6 4278190080
4.094943 5.135191 -13.526523 4278190080
4.2348089 5.1246138 -13.498661 4278190080
-9.8909092 8.1983471 -21.664793 4278190080
-11.559184 10.122449 -26.749388 4278190080
-0.95454502 14.090909 -37.236362 4278190080
-0.68181801 14.090909 -37.236362 4278190080
-0.54545498 14.090909 -37.236362 4278190080
0.225989 14.011299 -37.02599 4278190080
7.69697 9.393939 -24.824244 4278190080
23.9375 19.375 -51.200001 4278190080
24.625 19.375 -51.200001 4278190080
29.375 19.375 -51.200001 4278190080
29.375 19.375 -51.200001 4278190080
-10.233502 8.3654823 -22.178003 4278190080
-10.128695 8.5982609 -22.795132 4278190080
-11.702479 10.214876 -27.080992 4278190080
0.31727999 14.005666 -37.130878 4278190080
0.590909 14.045455 -37.236362 4278190080
23 19.3125 -51.200001 4278190080
23 19.3125 -51.200001 4278190080
28.875 19.3125 -51.200001 4278190080
-11.668687 9.9555559 -26.479193 4278190080
-11.471074 10.181818 -27.080992 4278190080
-0.18181799 14 -37.236362 4278190080
0.81818199 14 -37.236362 4278190080
23.6875 19.25 -51.200001 4278190080
23.6875 19.25 -51.200001 4278190080
24 19.25 -51.200001 4278190080
18.573099 14.409357 -38.325146 4278190080
25 19.25 -51.200001 4278190080
30.0625 19.25 -51.200001 4278190080
-9.7864075 7.9482198 -21.209063 4278190080
-9.0318661 7.4537182 -19.88953 4278190080
-4.0346732 3.870764 -10.328763 4278190080
-0.45454499 13.954545 -37.236362 4278190080
7.8291259 9.5378637 -25.450874 4278190080
22.8125 19.1875 -51.200001 4278190080
17.162012 13.720671 -36.612289 4278190080
29 19.1875 -51.200001 4278190080
30.3125 19.1875 -51.200001 4278190080
-11.307535 9.971487 -26.694908 4278190080
-13.167464 11.712918 -31.356937 4278190080
-13.438424 12.059114 -32.283745 4278190080
-2.810811 2.756757 -7.3801799 4278190080
-0.95454502 13.909091 -37.236362 4278190080
-0.590909 13.909091 -37.236362 4278190080
-0.36260599 13.869688 -37.130878 4278190080
0.090908997 13.909091 -37.236362 4278190080
0.226629 13.869688 -37.130878 4278190080
6.9386139 9.6950493 -25.954851 4278190080
7.1146879 9.8511066 -26.372637 4278190080
7.7642441 9.6188602 -25.750885 4278190080
23 19.125 -51.200001 4278190080
16.964384 13.413698 -35.910137 4278190080
18.533724 14.357771 -38.437538 4278190080
28.875 19.125 -51.200001 4278190080
28.875 19.125 -51.200001 4278190080
29.3125 19.125 -51.200001 4278190080
30.5 19.125 -51.200001 4278190080
-8.5194807 7.0418472 -18.91371 4278190080
-11.735538 10.082644 -27.080992 4278190080
-11.470469 9.9389 -26.694908 4278190080
-7.590909 13.863636 -37.236362 4278190080
-0.135977 13.824363 -37.130878 4278190080
3.533742 4.9897752 -13.402045 4278190080
7.8250499 9.7017889 -26.058052 4278190080
7.875 9.53125 -25.6 4278190080
23.375 19.0625 -51.200001 4278190080
17.054945 13.406593 -36.008793 4278190080
30.0625 19.0625 -51.200001 4278190080
-8.3399429 6.8895178 -18.565439 4278190080
-9.393548 7.845161 -21.140646 4278190080
-8.4594994 7.163476 -19.303682 4278190080
-1.2203389 13.740113 -37.02599 4278190080
0.45454499 13.818182 -37.236362 4278190080
24.1875 19 -51.200001 4278190080
21.517241 16.772413 -45.197243 4278190080
-7.6147308 13.733711 -37.130878 4278190080
-7.5 13.772727 -37.236362 4278190080
-0.72727299 13.772727 -37.236362 4278190080
0.18181799 13.772727 -37.236362 4278190080
0.40793201 13.733711 -37.130878 4278190080
4.0407329 4.9368629 -13.347454 4278190080
23.25 18.9375 -51.200001 4278190080
23.3125 18.9375 -51.200001 4278190080
-0.45454499 13.727273 -37.236362 4278190080
3.915066 4.8857431 -13.252983 4278190080
8 9.7419357 -26.425806 4278190080
21.627586 16.662069 -45.197243 4278190080
24.75 18.875 -51.200001 4278190080
28.875 18.875 -51.200001 4278190080
28.875 18.875 -51.200001 4278190080
29 18.875 -51.200001 4278190080
29 18.875 -51.200001 4278190080
29.5 18.875 -51.200001 4278190080
30.0625 18.875 -51.200001 4278190080
-7.9111109 6.688889 -18.204445 4278190080
-1 13.681818 -37.236362 4278190080
-0.95454502 13.681818 -37.236362 4278190080
-0.86363602 13.681818 -37.236362 4278190080
-0.36467201 13.720798 -37.342449 4278190080
0.683761 13.720798 -37.342449 4278190080
3.4748271 4.7541962 -12.938993 4278190080
21.73793 16.606897 -45.197243 4278190080
30.1875 18.8125 -51.200001 4278190080
30.1875 18.8125 -51.200001 4278190080
-1.29972 13.445378 -36.714848 4278190080
-0.590909 13.636364 -37.236362 4278190080
7.9185338 9.7759676 -26.694908 4278190080
29.625 18.75 -51.200001 4278190080
0.18181799 13.590909 -37.236362 4278190080
8.2492914 13.552408 -37.130878 4278190080
23.875 18.6875 -51.200001 4278190080
24.9375 18.6875 -51.200001 4278190080
29.8125 18.6875 -51.200001 4278190080
0.81818199 13.545455 -37.236362 4278190080
24 18.625 -51.200001 4278190080
24.25 18.625 -51.200001 4278190080
28.875 18.625 -51.200001 4278190080
28.875 18.625 -51.200001 4278190080
-7.5452189 6.139535 -16.934366 4278190080
-8.261735 6.7596021 -18.644667 4278190080
-0.54390901 13.461757 -37.130878 4278190080
0.226629 13.461757 -37.130878 4278190080
24.1875 18.5625 -51.200001 4278190080
-7.381495 6.0025349 -16.612421 4278190080
0.31818199 13.454545 -37.236362 4278190080
0.683761 13.492878 -37.342449 4278190080
30 18.5 -51.200001 4278190080
-7.826087 6.413043 -17.808697 4278190080
-7.3061218 6.0204082 -16.718369 4278190080
-7.0210142 5.834363 -16.201731 4278190080
-6.9326811 5.7772341 -16.043085 4278190080
-3.675344 3.614089 -10.036141 4278190080
-0.091168001 13.447293 -37.342449 4278190080
2.9293921 3.875205 -10.761248 4278190080
29.375 18.4375 -51.200001 4278190080
29.375 18.4375 -51.200001 4278190080
-0.45325801 13.325779 -37.130878 4278190080
0.31727999 13.325779 -37.130878 4278190080
30.125 18.375 -51.200001 4278190080
30.125 18.375 -51.200001 4278190080
-7.2258062 5.8163772 -16.262035 4278190080
-7.1155281 5.8236032 -16.282236 4278190080
-0.86363602 13.318182 -37.236362 4278190080
-0.72727299 13.318182 -37.236362 4278190080
-0.13675199 13.356126 -37.342449 4278190080
24.375 18.3125 -51.200001 4278190080
-6.8932042 5.6699028 -15.906796 4278190080
-4.0656762 3.652854 -10.248007 4278190080
-17 18.25 -51.200001 4278190080
-16.875 18.25 -51.200001 4278190080
0.909091 13.272727 -37.236362 4278190080
2.859967 3.8484349 -10.796705 4278190080
-16.875 18.1875 -51.200001 4278190080
-1.2169009 13.115493 -36.921692 4278190080
-0.99716699 13.189802 -37.130878 4278190080
-0.677966 13.152542 -37.02599 4278190080
-0.18285701 13.302857 -37.449142 4278190080
0.18130299 13.189802 -37.130878 4278190080
0.31818199 13.227273 -37.236362 4278190080
0.45454499 13.227273 -37.236362 4278190080
2.8566639 3.902766 -10.986756 4278190080
24 18.1875 -51.200001 4278190080
24 18.1875 -51.200001 4278190080
24.8125 18.1875 -51.200001 4278190080
29.375 18.1875 -51.200001 4278190080
-7.0258298 5.7072568 -16.122017 4278190080
-16.300753 17.443609 -49.275188 4278190080
-1.975528 5.1612902 -14.579756 4278190080
-0.58923501 13.144476 -37.130878 4278190080
0 13.181818 -37.236362 4278190080
23.875 18.125 -51.200001 4278190080
23 17.058823 -48.188236 4278190080
24.3125 18.0625 -51.200001 4278190080
24.3125 18.0625 -51.200001 4278190080
22.941177 17 -48.188236 4278190080
28.875 18.0625 -51.200001 4278190080
29.625 18.0625 -51.200001 4278190080
29.625 18.0625 -51.200001 4278190080
30 18.0625 -51.200001 4278190080
-7.0848708 5.6678972 -16.122017 4278190080
29.375 18 -51.200001 4278190080
29.375 18 -51.200001 4278190080
-7.1045508 5.6482158 -16.122017 4278190080
-0.94647902 12.935211 -36.921692 4278190080
-0.85875702 12.971751 -37.02599 4278190080
-0.226629 13.008498 -37.130878 4278190080
0 12.971751 -37.02599 4278190080
30.1875 17.9375 -51.200001 4278190080
-7.0634151 5.5804882 -15.98439 4278190080
0 12.817927 -36.714848 4278190080
0.590909 13 -37.236362 4278190080
18.891565 13.783133 -39.479519 4278190080
29 17.875 -51.200001 4278190080
29.625 17.875 -51.200001 4278190080
5.0070109 2.916507 -8.3538561 4278190080
-1.17847 12.917847 -37.130878 4278190080
-0.58923501 12.917847 -37.130878 4278190080
0.909091 12.954545 -37.236362 4278190080
18.851963 13.776435 -39.598793 4278190080
18.108883 13.065903 -37.556446 4278190080
18.09091 12.954545 -37.236362 4278190080
5.2844038 2.988204 -8.5892534 4278190080
-0.99435002 12.836158 -37.02599 4278190080
-0.72521198 12.872521 -37.130878 4278190080
0.45454499 12.909091 -37.236362 4278190080
0.45454499 12.909091 -37.236362 4278190080
8.2039661 12.872521 -37.130878 4278190080
18.127167 13.132948 -37.88208 4278190080
17.954546 12.909091 -37.236362 4278190080
28.875 17.75 -51.200001 4278190080
28.875 17.75 -51.200001 4278190080
29.375 17.75 -51.200001 4278190080
29.375 17.75 -51.200001 4278190080
-6.9951692 5.4685988 -15.829952 4278190080
-17.51634 14.797385 -42.833988 4278190080
-1.775744 5.180778 -14.996797 4278190080
-1.175141 12.79096 -37.02599 4278190080
-1.175141 12.79096 -37.02599 4278190080
0.18181799 12.863636 -37.236362 4278190080
8.1807909 12.79096 -37.02599 4278190080
8.818182 12.863636 -37.236362 4278190080
30.0625 17.6875 -51.200001 4278190080
-17.568628 14.745098 -42.833988 4278190080
-16.647976 14.056075 -40.832397 4278190080
-0.86119002 12.78187 -37.130878 4278190080
-0.45325801 12.78187 -37.130878 4278190080
-0.27195501 12.78187 -37.130878 4278190080
0.590909 12.818182 -37.236362 4278190080
0.909091 12.818182 -37.236362 4278190080
8.7478752 12.78187 -37.130878 4278190080
9.0574713 12.965517 -37.664368 4278190080
29.625 17.625 -51.200001 4278190080
-16.697819 14.00623 -40.832397 4278190080
8 12.700565 -37.02599 4278190080
29 17.5625 -51.200001 4278190080
29.375 17.5625 -51.200001 4278190080
29.375 17.5625 -51.200001 4278190080
-14.745098 12.54902 -36.714848 4278190080
-14.32967 12.307693 -36.008793 4278190080
-0.72727299 12.727273 -37.236362 4278190080
-0.5 12.727273 -37.236362 4278190080
-0.40678 12.655367 -37.02599 4278190080
0.27272701 12.727273 -37.236362 4278190080
0.77272701 12.727273 -37.236362 4278190080
7.9542861 12.8 -37.449142 4278190080
28.875 17.5 -51.200001 4278190080
30.0625 17.5 -51.200001 4278190080
5.2465839 2.9147689 -8.5277805 4278190080
-15.577713 13.090909 -38.437538 4278190080
-11.706422 10.238532 -30.062386 4278190080
-1.7882349 5.2517648 -15.420236 4278190080
-0.590909 12.681818 -37.236362 4278190080
7.954545 12.681818 -37.236362 4278190080
8.7436619 12.574648 -36.921692 4278190080
29.625 17.4375 -51.200001 4278190080
30.75 17.4375 -51.200001 4278190080
5.0714288 2.8469391 -8.3591843 4278190080
-13.5 11.583333 -34.133335 4278190080
-1.352113 12.529577 -36.921692 4278190080
-1.223796 12.600567 -37.130878 4278190080
-0.99716699 12.600567 -37.130878 4278190080
0.045325998 12.600567 -37.130878 4278190080
0.409091 12.636364 -37.236362 4278190080
-11.596331 10.165137 -30.062386 4278190080
-0.72727299 12.590909 -37.236362 4278190080
0.045198001 12.519774 -37.02599 4278190080
0.136364 12.590909 -37.236362 4278190080
0.18181799 12.590909 -37.236362 4278190080
0.909091 12.590909 -37.236362 4278190080
28.875 17.3125 -51.200001 4278190080
29.375 17.3125 -51.200001 4278190080
-13.416667 11.5 -34.133335 4278190080
-1.715618 5.146853 -15.276457 4278190080
-0.134831 12.404494 -36.817978 4278190080
30 17.25 -51.200001 4278190080
5.1752582 2.845361 -8.4453611 4278190080
-6.768507 5.1703882 -15.402116 4278190080
-2.6651139 2.562609 -7.63378 4278190080
-0.86363602 12.5 -37.236362 4278190080
-0.63636398 12.5 -37.236362 4278190080
-0.590909 12.5 -37.236362 4278190080
0.27272701 12.5 -37.236362 4278190080
29 17.1875 -51.200001 4278190080
30.75 17.1875 -51.200001 4278190080
-2.5910931 2.5355699 -7.5807981 4278190080
-2.6135831 2.566745 -7.674005 4278190080
-1.765258 5.1455402 -15.384038 4278190080
-1.2203389 12.384181 -37.02599 4278190080
0.045198001 12.384181 -37.02599 4278190080
0.54545498 12.454545 -37.236362 4278190080
7.7053819 12.419264 -37.130878 4278190080
29.5625 17.125 -51.200001 4278190080
-14.027397 11.967123 -35.910137 4278190080
-2.6481481 2.5277779 -7.585186 4278190080
-0.99716699 12.373938 -37.130878 4278190080
-0.72727299 12.409091 -37.236362 4278190080
-0.5 12.409091 -37.236362 4278190080
0.136364 12.409091 -37.236362 4278190080
0.18181799 12.409091 -37.236362 4278190080
0.409091 12.409091 -37.236362 4278190080
0.77272701 12.409091 -37.236362 4278190080
7.6435642 10.811881 -32.443565 4278190080
7.0175438 9.5789471 -28.74386 4278190080
29.375 17.0625 -51.200001 4278190080
29.875 17.0625 -51.200001 4278190080
30.0625 17.0625 -51.200001 4278190080
30.3125 17.0625 -51.200001 4278190080
-0.045325998 12.328612 -37.130878 4278190080
7.566503 10.719212 -32.283745 4278190080
3.291307 2.887857 -8.6975451 4278190080
-15.426866 12.943284 -39.125969 4278190080
-1.811321 5.1132069 -15.456604 4278190080
0.27272701 12.318182 -37.236362 4278190080
0.54545498 12.318182 -37.236362 4278190080
7.7948718 12.353276 -37.342449 4278190080
7.8860402 12.353276 -37.342449 4278190080
6.9380531 9.5929203 -28.99823 4278190080
2.844445 2.470655 -7.4684901 4278190080
-12.808399 11.338583 -34.4021 4278190080
-3.0967741 5.1612902 -15.659738 4278190080
-0.58923501 12.237961 -37.130878 4278190080
0.27195501 12.237961 -37.130878 4278190080
29 16.875 -51.200001 4278190080
-6.766355 5.028038 -15.31215 4278190080
-14.242253 12.123943 -36.921692 4278190080
-13.904762 12.809524 -39.009525 4278190080
-13.904762 12.809524 -39.009525 4278190080
-7.6600571 12.192635 -37.130878 4278190080
-0.99716699 12.192635 -37.130878 4278190080
-0.72521198 12.192635 -37.130878 4278190080
0.409091 12.227273 -37.236362 4278190080
0.909091 12.227273 -37.236362 4278190080
6.647182 8.9853859 -27.363674 4278190080
-12.202021 10.828282 -33.098991 4278190080
-2.827951 2.51791 -7.6965361 4278190080
-3.2076831 5.1476588 -15.734934 4278190080
-1.348315 12.044944 -36.817978 4278190080
-0.498584 12.147308 -37.130878 4278190080
6.59829 9.1623936 -28.006838 4278190080
29.4375 16.75 -51.200001 4278190080
29.875 16.75 -51.200001 4278190080
-14.929936 13.605096 -41.742676 4278190080
-13.673591 12.676558 -38.893768 4278190080
-1.916963 5.067616 -15.54828 4278190080
-1.715663 5.1469879 -15.791807 4278190080
-0.909091 12.136364 -37.236362 4278190080
0.31638399 12.067797 -37.02599 4278190080
28.875 16.6875 -51.200001 4278190080
29.625 16.6875 -51.200001 4278190080
30 16.6875 -51.200001 4278190080
30.3125 16.6875 -51.200001 4278190080
-13.938375 11.921569 -36.714848 4278190080
-15.031847 13.55414 -41.742676 4278190080
-1.355932 12.022599 -37.02599 4278190080
-0.135977 12.056657 -37.130878 4278190080
6.6528072 8.8482332 -27.249897 4278190080
-21.1875 16.5625 -51.200001 4278190080
-12.462725 10.899743 -33.694603 4278190080
-0.77053797 12.011332 -37.130878 4278190080
-0.27195501 12.011332 -37.130878 4278190080
-0.090395004 11.977401 -37.02599 4278190080
0.179775 11.910112 -36.817978 4278190080
-14.090909 12 -37.236362 4278190080
5.272727 12 -37.236362 4278190080
29 16.5 -51.200001 4278190080
29.25 16.5 -51.200001 4278190080
29.625 16.5 -51.200001 4278190080
-21.25 16.4375 -51.200001 4278190080
-14.039886 11.988604 -37.342449 4278190080
-0.045198001 11.887006 -37.02599 4278190080
0.270423 11.853521 -36.921692 4278190080
5.136364 11.954545 -37.236362 4278190080
3.4570141 4.760181 -14.827149 4278190080
3.5272729 4.7818179 -14.894546 4278190080
30.5 16.4375 -51.200001 4278190080
30.5 16.4375 -51.200001 4278190080
5.121212 2.6565659 -8.2747478 4278190080
-21.3125 16.375 -51.200001 4278190080
-21.125 16.375 -51.200001 4278190080
-16.472132 13.744263 -42.974426 4278190080
-3.280576 5.0263791 -15.716067 4278190080
-2.9003601 5.032413 -15.734934 4278190080
-2.5824561 4.9029241 -15.330059 4278190080
-2.1461079 5.02036 -15.697246 4278190080
-1 11.909091 -37.236362 4278190080
-0.5 11.909091 -37.236362 4278190080
2.9629631 2.425926 -7.585186 4278190080
28.875 16.375 -51.200001 4278190080
29.5 16.375 -51.200001 4278190080
30.25 16.375 -51.200001 4278190080
30.8125 16.375 -51.200001 4278190080
30.8125 16.375 -51.200001 4278190080
-21.4375 16.3125 -51.200001 4278190080
-2.6855791 4.9361701 -15.493144 4278190080
-1.269122 11.830029 -37.130878 4278190080
-0.90651602 11.830029 -37.130878 4278190080
-0.182336 11.897436 -37.342449 4278190080
0.180282 11.76338 -36.921692 4278190080
0.54390901 11.830029 -37.130878 4278190080
3.141217 4.7944889 -15.04845 4278190080
29.625 16.3125 -51.200001 4278190080
30 16.3125 -51.200001 4278190080
-5.7657661 4.1641641 -13.12032 4278190080
-13.61194 12.417911 -39.125969 4278190080
-2.832536 4.9760771 -15.678469 4278190080
-0.45583999 11.851851 -37.342449 4278190080
-0.22922599 11.919771 -37.556446 4278190080
29 16.25 -51.200001 4278190080
29.25 16.25 -51.200001 4278190080
-21.25 16.1875 -51.200001 4278190080
-21.25 16.1875 -51.200001 4278190080
-21.0625 16.1875 -51.200001 4278190080
-14.123457 12.790123 -40.454323 4278190080
-1.810945 5.1542292 -16.302488 4278190080
-1.2203389 11.706215 -37.02599 4278190080
-0.36571401 11.84 -37.449142 4278190080
0.270423 11.67324 -36.921692 4278190080
3.1775701 4.8411222 -15.31215 4278190080
29.5 16.1875 -51.200001 4278190080
-5.826962 4.1529169 -13.186318 4278190080
-21.375 16.125 -51.200001 4278190080
-13.556196 11.896254 -37.772911 4278190080
-13.679758 12.471299 -39.598793 4278190080
-0.99716699 11.694051 -37.130878 4278190080
-0.045455001 11.727273 -37.236362 4278190080
2.99404 4.9201431 -15.622408 4278190080
29.875 16.125 -51.200001 4278190080
29.875 16.125 -51.200001 4278190080
-1.894994 5.0207572 -16.003908 4278190080
-1.355932 11.615819 -37.02599 4278190080
-1.042493 11.648726 -37.130878 4278190080
-0.72727299 11.681818 -37.236362 4278190080
-0.634561 11.648726 -37.130878 4278190080
6.0812578 5.3892531 -17.178507 4278190080
29 16.0625 -51.200001 4278190080
29.625 16.0625 -51.200001 4278190080
30.0625 16.0625 -51.200001 4278190080
-21.5625 16 -51.200001 4278190080
-21.375 16 -51.200001 4278190080
-21.375 16 -51.200001 4278190080
-2.7547171 4.8301892 -15.456604 4278190080
-0.36676201 11.73639 -37.556446 4278190080
-0.091429003 11.702857 -37.449142 4278190080
0.86119002 11.603399 -37.130878 4278190080
3.196218 4.841608 -15.493144 4278190080
3.322506 4.75174 -15.205568 4278190080
2.913404 2.429419 -7.7741399 4278190080
30.5 16 -51.200001 4278190080
30.5 16 -51.200001 4278190080
-20.125 15.9375 -51.200001 4278190080
-2.5806451 4.7004609 -15.100461 4278190080
-1.888199 5.0683231 -16.282236 4278190080
-1.303371 11.460674 -36.817978 4278190080
-0.85875702 11.525424 -37.02599 4278190080
0.27118599 11.525424 -37.02599 4278190080
2.9015541 2.348877 -7.5458841 4278190080
29.4375 15.9375 -51.200001 4278190080
-15.4375 15.875 -51.200001 4278190080
-15.4375 15.875 -51.200001 4278190080
-4.4372468 8.2267208 -26.532793 4278190080
-0.77053797 11.512748 -37.130878 4278190080
-0.045713998 11.611428 -37.449142 4278190080
2.2216811 4.9500608 -15.964921 4278190080
2.423645 5.0049262 -16.141872 4278190080
2.5498779 4.9440389 -15.945499 4278190080
6.099329 5.4550338 -17.593557 4278190080
6.1928668 5.3685598 -17.314663 4278190080
6.030457 5.157361 -16.633503 4278190080
29 15.875 -51.200001 4278190080
-13.346734 10.170855 -32.932663 4278190080
-19.295879 15.161049 -49.090637 4278190080
-5.5573211 4.594779 -14.877639 4278190080
-17.699635 14.827839 -48.011723 4278190080
-9.913043 8.8000002 -28.493914 4278190080
-9.7376347 8.7053766 -28.187527 4278190080
-9.6068373 8.6495724 -28.006838 4278190080
-4.7866111 8.4686193 -27.420921 4278190080
-1.809045 5.0854268 -16.466331 4278190080
-1.723701 5.1305451 -16.612421 4278190080
-1.716475 5.1698589 -16.739719 4278190080
2.177279 5.0536828 -16.363546 4278190080
2.8327229 4.9426131 -16.003908 4278190080
8.3560829 12.011869 -38.893768 4278190080
6.1316128 5.2232261 -16.912516 4278190080
29.8125 15.8125 -51.200001 4278190080
30.0625 15.8125 -51.200001 4278190080
30.25 15.8125 -51.200001 4278190080
-20.25 15.75 -51.200001 4278190080
-20.25 15.75 -51.200001 4278190080
-17.419796 13.761092 -44.73447 4278190080
-5.4407158 4.510067 -14.661298 4278190080
-17.764706 14.823529 -48.188236 4278190080
-1.726918 5.2431731 -17.044474 4278190080
-1.344538 11.294118 -36.714848 4278190080
-0.85633802 11.357746 -36.921692 4278190080
-0.498584 11.422096 -37.130878 4278190080
-0.27586201 11.586206 -37.664368 4278190080
0.40678 11.389831 -37.02599 4278190080
0.542373 11.389831 -37.02599 4278190080
2.1561711 5.0780849 -16.507809 4278190080
2.5882349 4.9411759 -16.062746 4278190080
7.936255 8.0318727 -26.109961 4278190080
29.25 15.75 -51.200001 4278190080
29.625 15.75 -51.200001 4278190080
-13.353383 10.065163 -32.850124 4278190080
-14.943397 12.628931 -41.217609 4278190080
-9.1428576 8.1959181 -26.749388 4278190080
-1.831447 5.0515718 -16.487043 4278190080
-0.76836199 11.344633 -37.02599 4278190080
0.135977 11.376771 -37.130878 4278190080
0.18130299 11.376771 -37.130878 4278190080
2.1856761 5.3262601 -17.383554 4278190080
2.196079 5.2496729 -17.133595 4278190080
3.0754261 4.8856449 -15.945499 4278190080
3.188406 4.8502421 -15.829952 4278190080
7.7025442 7.8590999 -25.650099 4278190080
6.3265858 5.419703 -17.68853 4278190080
6.2849541 5.347537 -17.452997 4278190080
29.4375 15.6875 -51.200001 4278190080
31.1875 15.6875 -51.200001 4278190080
31.1875 15.6875 -51.200001 4278190080
-13.246882 9.9750624 -32.686283 4278190080
-17.82699 13.840831 -45.353634 4278190080
-14.91358 12.345679 -40.454323 4278190080
-15.044025 12.578616 -41.217609 4278190080
-13.923304 11.79941 -38.664307 4278190080
-9.7510729 8.5836906 -28.127039 4278190080
-15.375 15.625 -51.200001 4278190080
-1.819121 5.1679592 -16.934366 4278190080
-0.36363599 11.363636 -37.236362 4278190080
-0.31999999 11.428572 -37.449142 4278190080
0.634561 11.331445 -37.130878 4278190080
-14.864198 12.296296 -40.454323 4278190080
-14.716049 12.296296 -40.454323 4278190080
-15.625 15.5625 -51.200001 4278190080
-1.873171 4.8585372 -15.98439 4278190080
-1.885856 4.9429278 -16.262035 4278190080
-1.039548 11.254237 -37.02599 4278190080
0 11.318182 -37.236362 4278190080
3.3541081 11.286119 -37.130878 4278190080
3.0024209 4.823245 -15.868281 4278190080
29 15.5625 -51.200001 4278190080
29 15.5625 -51.200001 4278190080
30.0625 15.5625 -51.200001 4278190080
-15.5 15.5 -51.200001 4278190080
-4.8067231 8.3361349 -27.536135 4278190080
-4.4748492 7.9839029 -26.372637 4278190080
-0.90395498 11.20904 -37.02599 4278190080
2.863636 11.272727 -37.236362 4278190080
3.1908829 11.304843 -37.342449 4278190080
3.5851851 7.3481479 -24.272593 4278190080
2.9975669 4.82725 -15.945499 4278190080
3.188612 4.7069988 -15.54828 4278190080
29.625 15.5 -51.200001 4278190080
31.3125 15.5 -51.200001 4278190080
-13.105528 9.9296484 -32.932663 4278190080
-5.4717832 4.4604959 -14.793679 4278190080
-15.4375 15.4375 -51.200001 4278190080
-8.625 15.4375 -51.200001 4278190080
-8.625 15.4375 -51.200001 4278190080
-0.63276798 11.163842 -37.02599 4278190080
-0.18338101 11.323782 -37.556446 4278190080
0.27195501 11.195467 -37.130878 4278190080
2.818182 11.227273 -37.236362 4278190080
3.3371429 11.291429 -37.449142 4278190080
5.375 15.4375 -51.200001 4278190080
2.2352941 4.8431368 -16.062746 4278190080
2.676435 4.825397 -16.003908 4278190080
3 4.8431368 -16.062746 4278190080
7.0500002 6.1750002 -20.48 4278190080
28.875 15.4375 -51.200001 4278190080
-13.21393 9.7910452 -32.604977 4278190080
-2.495496 2.2162161 -7.3801799 4278190080
-0.18443801 11.342939 -37.772911 4278190080
0.909091 11.181818 -37.236362 4278190080
2.636364 11.181818 -37.236362 4278190080
3.0716331 11.277937 -37.556446 4278190080
3.2820511 11.213675 -37.342449 4278190080
2.1735849 4.950943 -16.487043 4278190080
3.8137801 7.3296089 -24.408194 4278190080
3.1194971 4.950943 -16.487043 4278190080
7.066246 6.2082019 -20.673817 4278190080
7.2863851 6.1596251 -20.512051 4278190080
13.733906 8.446352 -28.127039 4278190080
29.25 15.375 -51.200001 4278190080
29.4375 15.375 -51.200001 4278190080
-13.564304 10.288713 -34.4021 4278190080
-5.605442 4.4444451 -14.860771 4278190080
-13.485714 11.2 -37.449142 4278190080
0.135977 11.104815 -37.130878 4278190080
2.545455 11.136364 -37.236362 4278190080
3.017143 11.2 -37.449142 4278190080
5.4375 15.3125 -51.200001 4278190080
5.4375 15.3125 -51.200001 4278190080
5.6875 15.3125 -51.200001 4278190080
6 15.3125 -51.200001 4278190080
3.6377079 7.245841 -24.227726 4278190080
7.3927388 12.937294 -43.258087 4278190080
7.7056861 13.110368 -43.836788 4278190080
3.155216 4.987278 -16.675827 4278190080
7.1698108 6.1635218 -20.608805 4278190080
31 15.3125 -51.200001 4278190080
-13.837838 10.551352 -35.424866 4278190080
-1.918367 4.9795918 -16.718369 4278190080
-0.634561 11.05949 -37.130878 4278190080
-0.54545498 11.090909 -37.236362 4278190080
-0.046512 11.348837 -38.102325 4278190080
2.5310731 11.028249 -37.02599 4278190080
2.818182 11.090909 -37.236362 4278190080
6.0625 15.25 -51.200001 4278190080
3.5985129 7.256505 -24.362825 4278190080
2.993679 4.935524 -16.570417 4278190080
3.5513351 2.3169141 -7.7787542 4278190080
29.625 15.25 -51.200001 4278190080
-5.6481271 4.413167 -14.877639 4278190080
-0.54054099 2.189189 -7.3801799 4278190080
-0.90651602 11.014164 -37.130878 4278190080
-0.41142899 11.108571 -37.449142 4278190080
3.448276 11.172414 -37.664368 4278190080
5.375 15.1875 -51.200001 4278190080
5.375 15.1875 -51.200001 4278190080
5.625 15.1875 -51.200001 4278190080
5.9375 15.1875 -51.200001 4278190080
7.3887038 12.916944 -43.545517 4278190080
7.75 7.59375 -25.6 4278190080
7.332283 6.1228352 -20.64126 4278190080
13.90558 8.3433475 -28.127039 4278190080
-1.854167 5.041667 -17.066668 4278190080
-0.187683 11.354838 -38.437538 4278190080
-0.045977 11.126437 -37.664368 4278190080
2.674221 10.968839 -37.130878 4278190080
3.227273 11 -37.236362 4278190080
3.7426901 7.5477581 -25.550098 4278190080
3.295285 4.8039699 -16.262035 4278190080
13.724138 8.3448277 -28.248276 4278190080
13.787234 8.2382975 -27.887659 4278190080
13.618448 8.1174002 -27.478407 4278190080
13.399177 7.9670782 -26.969547 4278190080
29 15.125 -51.200001 4278190080
30 15.125 -51.200001 4278190080
-13.181142 9.5682383 -32.524071 4278190080
-13.062035 9.5682383 -32.524071 4278190080
-14.448484 11.684849 -39.718788 4278190080
-1.2169009 10.861972 -36.921692 4278190080
0 10.954545 -37.236362 4278190080
0.135977 10.923512 -37.130878 4278190080
0.27195501 10.923512 -37.130878 4278190080
2.2311561 4.8442211 -16.466331 4278190080
7.4078059 5.1897712 -17.640915 4278190080
7.2258062 4.9754839 -16.912516 4278190080
13.140562 7.7429719 -26.319679 4278190080
-13.131313 9.69697 -33.098991 4278190080
-5.5028381 4.3586831 -14.877639 4278190080
-0.77272701 10.909091 -37.236362 4278190080
-0.234604 11.260997 -38.437538 4278190080
2.590909 10.909091 -37.236362 4278190080
6.25 15 -51.200001 4278190080
2.210526 5.0526309 -17.246317 4278190080
8.0625 15 -51.200001 4278190080
8.0625 15 -51.200001 4278190080
13.76824 8.2403431 -28.127039 4278190080
13.038229 7.7263579 -26.372637 4278190080
28.875 15 -51.200001 4278190080
-13.73913 10.391304 -35.617393 4278190080
-1.824934 5.0716181 -17.383554 4278190080
-1.818182 5.112299 -17.522995 4278190080
-0.63636398 10.863636 -37.236362 4278190080
-0.323699 11.052023 -37.88208 4278190080
0.86363602 10.863636 -37.236362 4278190080
5.25 14.9375 -51.200001 4278190080
5.25 14.9375 -51.200001 4278190080
5.2932329 14.37594 -49.275188 4278190080
3.6875 7.46875 -25.6 4278190080
13.685106 8.1361704 -27.887659 4278190080
-1.85752 5.023746 -17.291821 4278190080
-1.7181211 5.1114092 -17.593557 4278190080
-0.63636398 10.818182 -37.236362 4278190080
3.5759311 10.911175 -37.556446 4278190080
3.761905 11.333333 -39.009525 4278190080
6.3125 14.875 -51.200001 4278190080
3.224335 4.8263631 -16.612421 4278190080
7.3396478 5.1529088 -17.736401 4278190080
-21.3125 14.8125 -51.200001 4278190080
-21.3125 14.8125 -51.200001 4278190080
-13.333333 9.7230768 -33.608204 4278190080
-13.34715 9.8238344 -33.956478 4278190080
-12.852459 10.360656 -35.812023 4278190080
-14.973585 14.309434 -49.461132 4278190080
-15 14.8125 -51.200001 4278190080
-14.4375 14.8125 -51.200001 4278190080
-14.375 14.8125 -51.200001 4278190080
-13.625 14.8125 -51.200001 4278190080
-13.5625 14.8125 -51.200001 4278190080
-4.1648588 8.2255964 -28.432104 4278190080
-0.90651602 10.742209 -37.130878 4278190080
-0.634561 10.742209 -37.130878 4278190080
0.86119002 10.742209 -37.130878 4278190080
3.7907691 11.667692 -40.329845 4278190080
3.0180881 4.8992252 -16.934366 4278190080
7.251647 4.996047 -17.269039 4278190080
7.211267 4.8553138 -16.782587 4278190080
29 14.8125 -51.200001 4278190080
29.3125 14.8125 -51.200001 4278190080
30.0625 14.8125 -51.200001 4278190080
-13.658537 10.233063 -35.520866 4278190080
-5.5843859 4.335247 -15.04845 4278190080
-14.20649 11.138643 -38.664307 4278190080
-9.5626822 11.008746 -38.213413 4278190080
-12.375 14.75 -51.200001 4278190080
-12.375 14.75 -51.200001 4278190080
-7.6137929 13.02069 -45.197243 4278190080
-1.85695 5.0958171 -17.68853 4278190080
-1.703504 5.0889492 -17.66469 4278190080
-1.348315 10.606742 -36.817978 4278190080
-1.039548 10.666667 -37.02599 4278190080
-0.77272701 10.727273 -37.236362 4278190080
-0.5 10.727273 -37.236362 4278190080
0.40793201 10.696884 -37.130878 4278190080
2.6971431 10.788571 -37.449142 4278190080
3.525259 2.2982349 -7.977602 4278190080
13.699571 8.1030045 -28.127039 4278190080
29.4375 14.75 -51.200001 4278190080
29.625 14.75 -51.200001 4278190080
-17.546667 12.533334 -43.690666 4278190080
-14.098551 10.898551 -37.991886 4278190080
-14.1875 14.6875 -51.200001 4278190080
-8.6015034 14.135339 -49.275188 4278190080
-8.3529425 13.823529 -48.188236 4278190080
-7.55862 12.965517 -45.197243 4278190080
-1.581028 4.953887 -17.269039 4278190080
-2.9375 14.6875 -51.200001 4278190080
-1.213483 10.561798 -36.817978 4278190080
-0.54545498 10.681818 -37.236362 4278190080
0.135593 10.621469 -37.02599 4278190080
4.9411759 13.823529 -48.188236 4278190080
2.2456141 5.074224 -17.68853 4278190080
7.6190481 12.789116 -44.582314 4278190080
3.041667 4.895833 -17.066668 4278190080
7.208333 4.895833 -17.066668 4278190080
13.641026 8.0341883 -28.006838 4278190080
29.9375 14.6875 -51.200001 4278190080
-21.375 14.625 -51.200001 4278190080
-21.3125 14.625 -51.200001 4278190080
-17.546667 12.48 -43.690666 4278190080
-12.75077 11.52 -40.329845 4278190080
-14.913208 14.128302 -49.461132 4278190080
-11.875 14.625 -51.200001 4278190080
-11.875 14.625 -51.200001 4278190080
-8.6875 14.625 -51.200001 4278190080
-1.714286 5.1428571 -18.004396 4278190080
-0.909091 10.636364 -37.236362 4278190080
-0.63636398 10.636364 -37.236362 4278190080
-0.183908 10.75862 -37.664368 4278190080
-0.091954 10.75862 -37.664368 4278190080
0.226629 10.606233 -37.130878 4278190080
0.77053797 10.606233 -37.130878 4278190080
5.25 14.625 -51.200001 4278190080
5 13.764706 -48.188236 4278190080
5.8125 14.625 -51.200001 4278190080
2.2016349 5.1008172 -17.857222 4278190080
3.233161 4.849741 -16.978239 4278190080
13.593221 7.9322028 -27.769491 4278190080
29 14.625 -51.200001 4278190080
-19.764706 13.705882 -48.188236 4278190080
-18.444445 12.944445 -45.511112 4278190080
-9.7142859 7.831933 -27.536135 4278190080
-9.5626822 10.868805 -38.213413 4278190080
-12.0625 14.5625 -51.200001 4278190080
-4.5290022 8.6496515 -30.411137 4278190080
-3 14.5625 -51.200001 4278190080
-3 14.5625 -51.200001 4278190080
1.100286 10.681949 -37.556446 4278190080
7.5646262 12.680272 -44.582314 4278190080
3.3809519 2.219048 -7.8019052 4278190080
28.875 14.5625 -51.200001 4278190080
30 14.5625 -51.200001 4278190080
-5.8544698 3.858628 -13.624949 4278190080
-12.40281 8.6932087 -30.69602 4278190080
-12.222222 8.5925922 -30.340742 4278190080
-14.787172 10.822158 -38.213413 4278190080
-14.363636 10.545455 -37.236362 4278190080
-14 10.311111 -36.40889 4278190080
-9.1062126 7.4388781 -26.266933 4278190080
-8.6936417 7.152216 -25.254721 4278190080
-14.6875 14.5 -51.200001 4278190080
-13.764706 13.647058 -48.188236 4278190080
-13.449275 13.449275 -47.489857 4278190080
-13.8125 14.5 -51.200001 4278190080
-13.4375 14.5 -51.200001 4278190080
-12.75 14.5 -51.200001 4278190080
-1.639344 5.0710378 -17.906012 4278190080
-1.355932 10.485876 -37.02599 4278190080
-0.77272701 10.545455 -37.236362 4278190080
-0.77272701 10.545455 -37.236362 4278190080
0.63636398 10.545455 -37.236362 4278190080
3.682008 7.7656898 -27.420921 4278190080
8.6875 14.5 -51.200001 4278190080
11.0625 14.5 -51.200001 4278190080
29.4375 14.5 -51.200001 4278190080
31.125 14.5 -51.200001 4278190080
-14.197183 10.411267 -36.921692 4278190080
-5.7927818 4.3026781 -15.258673 4278190080
-5.775701 4.3177571 -15.31215 4278190080
-12.95 11.55 -40.959999 4278190080
-14.072992 13.489051 -47.836498 4278190080
-14.0625 14.4375 -51.200001 4278190080
-1.85695 4.987854 -17.68853 4278190080
-1.835358 4.987854 -17.68853 4278190080
-2.4801509 6.9867668 -24.777315 4278190080
0.40793201 10.470255 -37.130878 4278190080
0.86119002 10.470255 -37.130878 4278190080
10.5625 14.4375 -51.200001 4278190080
10.5625 14.4375 -51.200001 4278190080
11.3125 14.4375 -51.200001 4278190080
11.625 14.4375 -51.200001 4278190080
12.0625 14.4375 -51.200001 4278190080
29.875 14.4375 -51.200001 4278190080
-21.125 14.375 -51.200001 4278190080
-21 14.375 -51.200001 4278190080
-14.358974 10.48433 -37.342449 4278190080
-9.7215195 7.7637129 -27.652321 4278190080
-8.6963253 7.1179891 -25.352419 4278190080
-14.6875 14.375 -51.200001 4278190080
-13.507246 13.333333 -47.489857 4278190080
-13.5625 14.375 -51.200001 4278190080
-13.5625 14.375 -51.200001 4278190080
-12.6875 14.375 -51.200001 4278190080
-12.5 14.375 -51.200001 4278190080
-12.0625 14.375 -51.200001 4278190080
-12.0625 14.375 -51.200001 4278190080
-8.875 14.375 -51.200001 4278190080
-4.857831 8.8674698 -31.583614 4278190080
-2.575758 6.969697 -24.824244 4278190080
-2.75 14.375 -51.200001 4278190080
-1.613833 10.605187 -37.772911 4278190080
-0.36260599 10.42493 -37.130878 4278190080
0.95726502 10.48433 -37.342449 4278190080
1.060519 10.605187 -37.772911 4278190080
4.3125 14.375 -51.200001 4278190080
5.6875 14.375 -51.200001 4278190080
2.369565 5 -17.808697 4278190080
3.7 7.666667 -27.306667 4278190080
10.007273 13.381818 -47.662548 4278190080
3.5629849 2.197015 -7.8251939 4278190080
13.304536 7.948164 -28.309288 4278190080
29.25 14.375 -51.200001 4278190080
29.625 14.375 -51.200001 4278190080
31.1875 14.375 -51.200001 4278190080
31.1875 14.375 -51.200001 4278190080
-10.426967 8.2337074 -29.454382 4278190080
-8.634429 7.0870399 -25.352419 4278190080
-4.3505621 8.2337074 -29.454382 4278190080
-4.612987 9.5168829 -34.044678 4278190080
-3.7167139 10.379603 -37.130878 4278190080
-1.325714 10.468572 -37.449142 4278190080
-0.54545498 10.409091 -37.236362 4278190080
-0.18079101 10.350283 -37.02599 4278190080
-0.045198001 10.350283 -37.02599 4278190080
0 10.350283 -37.02599 4278190080
5 14.3125 -51.200001 4278190080
3.270541 7.3426852 -26.266933 4278190080
2.2513659 5.005465 -17.906012 4278190080
7.2911391 11.594936 -41.478481 4278190080
3.170604 4.8083992 -17.20105 4278190080
11.5 14.3125 -51.200001 4278190080
11.6875 14.3125 -51.200001 4278190080
12.5625 14.3125 -51.200001 4278190080
11.826087 13.275362 -47.489857 4278190080
13.5 14.3125 -51.200001 4278190080
12.555555 12.722222 -45.511112 4278190080
12.063091 11.558359 -41.347633 4278190080
19.8125 14.3125 -51.200001 4278190080
3.5617721 2.1351981 -7.6382279 4278190080
13.747899 7.6974788 -27.536135 4278190080
-7.2218852 5.5440731 -19.919758 4278190080
-9 14.25 -51.200001 4278190080
-4.2863741 8.424942 -30.27067 4278190080
-4.2863741 8.424942 -30.27067 4278190080
-2.6875 14.25 -51.200001 4278190080
-0.77272701 10.363636 -37.236362 4278190080
-0.63636398 10.363636 -37.236362 4278190080
-0.63636398 10.363636 -37.236362 4278190080
0.135977 10.334277 -37.130878 4278190080
1.1066279 10.512968 -37.772911 4278190080
4.5 14.25 -51.200001 4278190080
3.3189819 7.1389432 -25.650099 4278190080
10.625 14.25 -51.200001 4278190080
11.768116 13.217391 -47.489857 4278190080
14.0625 14.25 -51.200001 4278190080
18.6875 14.25 -51.200001 4278190080
13.724138 7.8620691 -28.248276 4278190080
29 14.25 -51.200001 4278190080
-12.377358 8.5660381 -30.913208 4278190080
-12.491567 8.7518072 -31.583614 4278190080
-15.751553 11.279503 -40.705589 4278190080
-8.3125 14.1875 -51.200001 4278190080
-8.25 14.1875 -51.200001 4278190080
-7.6417909 13.552238 -48.907463 4278190080
-3.9729121 8.1986456 -29.587358 4278190080
-3.841584 8.990099 -32.443565 4278190080
-0.441441 2.0450449 -7.3801799 4278190080
-0.95454502 10.318182 -37.236362 4278190080
0.77053797 10.288952 -37.130878 4278190080
3.4734409 8.387991 -30.27067 4278190080
7.0879478 11.830619 -42.694462 4278190080
13.5625 14.1875 -51.200001 4278190080
3.4569609 2.0982089 -7.5720401 4278190080
30.875 14.1875 -51.200001 4278190080
31.1875 14.1875 -51.200001 4278190080
-5.916667 3.7666669 -13.653334 4278190080
-4.2517481 8.4289045 -30.552914 4278190080
-4.1370721 11.264797 -40.832397 4278190080
-1.367521 10.301994 -37.342449 4278190080
0.135593 10.214689 -37.02599 4278190080
0.226629 10.243626 -37.130878 4278190080
0.226629 10.243626 -37.130878 4278190080
11.9375 14.125 -51.200001 4278190080
13.125 14.125 -51.200001 4278190080
14.125 14.125 -51.200001 4278190080
12.888889 12.555555 -45.511112 4278190080
12.899654 12.512111 -45.353634 4278190080
9.1214952 5.6323991 -20.416199 4278190080
14.27027 8.1441441 -29.520721 4278190080
13.934355 7.9124732 -28.680964 4278190080
29.25 14.125 -51.200001 4278190080
29.25 14.125 -51.200001 4278190080
29.4375 14.125 -51.200001 4278190080
-12.530121 8.6746988 -31.583614 4278190080
-5.6968269 4.2303171 -15.402116 4278190080
-8.9375 14.0625 -51.200001 4278190080
-8.25 14.0625 -51.200001 4278190080
-4.333333 8.333333 -30.340742 4278190080
-3.874439 8.0717487 -29.388342 4278190080
-3.5099721 10.256411 -37.342449 4278190080
-0.54955 2.0270269 -7.3801799 4278190080
-1.314448 10.1983 -37.130878 4278190080
-1.17847 10.1983 -37.130878 4278190080
-1.042493 10.1983 -37.130878 4278190080
-0.27118599 10.169492 -37.02599 4278190080
0 10.1983 -37.130878 4278190080
0.409091 10.227273 -37.236362 4278190080
3.9891601 9.7560978 -35.520866 4278190080
3.4654379 8.2949305 -30.200922 4278190080
7.152318 11.920529 -43.401325 4278190080
8.5294113 13.235294 -48.188236 4278190080
9.7404022 6.5813532 -23.961975 4278190080
9.4521456 5.9405942 -21.629044 4278190080
14.310112 8.0898876 -29.454382 4278190080
13.943356 7.8431368 -28.555992 4278190080
8.5110817 4.6936121 -17.088919 4278190080
28.875 14.0625 -51.200001 4278190080
29.625 14.0625 -51.200001 4278190080
30.0625 14.0625 -51.200001 4278190080
30.9375 14.0625 -51.200001 4278190080
-7.3434649 5.4468079 -19.919758 4278190080
-8.625 14 -51.200001 4278190080
-8.25 14 -51.200001 4278190080
-7.4666672 13.274074 -48.545185 4278190080
-3.7530861 8.8493824 -32.363457 4278190080
-4.1869159 11.165109 -40.832397 4278190080
-1.213483 10.067416 -36.817978 4278190080
-0.54545498 10.181818 -37.236362 4278190080
-0.135593 10.124293 -37.02599 4278190080
3.2313731 7.027451 -25.700392 4278190080
3.366734 7.1823649 -26.266933 4278190080
7.2393441 11.750819 -42.974426 4278190080
11.9375 14 -51.200001 4278190080
12.25 14 -51.200001 4278190080
13.25 14 -51.200001 4278190080
13.3125 14 -51.200001 4278190080
13.8125 14 -51.200001 4278190080
14 14 -51.200001 4278190080
12.76655 12.487804 -45.669685 4278190080
18.75 14 -51.200001 4278190080
9.0306749 5.496933 -20.103067 4278190080
14.938389 8.4928913 -31.059715 4278190080
13.862069 7.7241378 -28.248276 4278190080
29 14 -51.200001 4278190080
29.8125 14 -51.200001 4278190080
-4.1538458 8.5769234 -31.507692 4278190080
-0.77053797 10.107649 -37.130878 4278190080
0.82051301 10.165242 -37.342449 4278190080
3.956522 9.695652 -35.617393 4278190080
5.2544379 10.556213 -38.778698 4278190080
5.2544379 10.556213 -38.778698 4278190080
15.5 13.9375 -51.200001 4278190080
18.9375 13.9375 -51.200001 4278190080
15.087886 8.4750605 -31.133492 4278190080
-12.486874 8.4773273 -31.282101 4278190080
-12.062176 9.2020721 -33.956478 4278190080
-4.2962961 8.2222223 -30.340742 4278190080
-0.951841 10.062323 -37.130878 4278190080
-0.68181801 10.090909 -37.236362 4278190080
0.683761 10.119658 -37.342449 4278190080
4.375 13.875 -51.200001 4278190080
7.4326239 12.595745 -46.479435 4278190080
8.5294113 13.058824 -48.188236 4278190080
-12.661871 8.4796162 -31.432135 4278190080
-11.531172 8.817955 -32.686283 4278190080
-0.18079101 9.9887009 -37.02599 4278190080
4.5784621 10.88 -40.329845 4278190080
7.75 13.8125 -51.200001 4278190080
7.2777781 12.277778 -45.511112 4278190080
19.3125 13.8125 -51.200001 4278190080
15.51952 10.618619 -39.360962 4278190080
9.8461542 6.476191 -24.005861 4278190080
15.052133 8.3791466 -31.059715 4278190080
17.268541 9.043478 -33.522251 4278190080
28.8125 13.8125 -51.200001 4278190080
29.4375 13.8125 -51.200001 4278190080
29.8125 13.8125 -51.200001 4278190080
29.8125 13.8125 -51.200001 4278190080
-11.610972 8.7780552 -32.686283 4278190080
-3.5652969 3.214612 -11.970046 4278190080
-4.1176472 8.6274509 -32.125492 4278190080
-1.274725 9.67033 -36.008793 4278190080
4.7554178 10.897833 -40.579567 4278190080
4.9079762 10.797546 -40.206135 4278190080
29.25 13.75 -51.200001 4278190080
-6.093617 3.727659 -13.94383 4278190080
-16.298136 10.881988 -40.705589 4278190080
-12.599033 8.463768 -31.659904 4278190080
-5.7222219 4.0555549 -15.170371 4278190080
-9.785408 7.5193129 -28.127039 4278190080
-3.8540151 8.525547 -31.890999 4278190080
-1.307902 9.5476837 -35.714443 4278190080
-0.679887 9.9263458 -37.130878 4278190080
0.27118599 9.8983049 -37.02599 4278190080
4.9717512 9.8983049 -37.02599 4278190080
3.247957 4.7738419 -17.857222 4278190080
18.1875 13.6875 -51.200001 4278190080
18.8125 13.6875 -51.200001 4278190080
19 13.6875 -51.200001 4278190080
15.078534 9.1727753 -34.312042 4278190080
14.62963 8.1111107 -30.340742 4278190080
16.974619 8.8934011 -33.267006 4278190080
16.929293 8.848485 -33.098991 4278190080
29.625 13.6875 -51.200001 4278190080
-6.2919388 3.7995639 -14.277996 4278190080
-6.0189672 3.6754479 -13.811591 4278190080
-6.9852509 5.1445432 -19.332153 4278190080
-13.125 13.625 -51.200001 4278190080
-0.36260599 9.8810196 -37.130878 4278190080
-0.225352 9.8253517 -36.921692 4278190080
7.625 13.625 -51.200001 4278190080
14.549451 9.5824165 -36.008793 4278190080
14.804124 8.9896908 -33.781445 4278190080
14.465754 7.96347 -29.925114 4278190080
30 13.625 -51.200001 4278190080
30.3125 13.625 -51.200001 4278190080
30.9375 13.625 -51.200001 4278190080
-6.4498892 3.86637 -14.595991 4278190080
-5.958159 3.631799 -13.710461 4278190080
-16.344616 10.683077 -40.329845 4278190080
-16.298136 10.782609 -40.705589 4278190080
-4.0567651 3.2847681 -12.400378 4278190080
-13 13.5625 -51.200001 4278190080
-1.039548 9.80791 -37.02599 4278190080
-0.81586403 9.8356943 -37.130878 4278190080
-0.27195501 9.8356943 -37.130878 4278190080
0.090140998 9.780282 -36.921692 4278190080
0.5 9.863636 -37.236362 4278190080
5.0625 13.5625 -51.200001 4278190080
5.0625 13.5625 -51.200001 4278190080
4.9195399 9.9770117 -37.664368 4278190080
7.5625 13.5625 -51.200001 4278190080
3.084605 4.8155341 -18.179195 4278190080
3.1518469 4.7496581 -17.930506 4278190080
18.6875 13.5625 -51.200001 4278190080
18.9375 13.5625 -51.200001 4278190080
19.25 13.5625 -51.200001 4278190080
14.377465 9.780282 -36.921692 4278190080
14.677003 8.9715767 -33.868732 4278190080
29.4375 13.5625 -51.200001 4278190080
-6.32967 3.797802 -14.403517 4278190080
-16.392637 10.601227 -40.206135 4278190080
-5.5801349 3.900677 -14.793679 4278190080
-4.1599998 3.291429 -12.483047 4278190080
-4.0902262 3.2481201 -12.318797 4278190080
-3.6270571 3.159049 -11.980988 4278190080
-13.5 13.5 -51.200001 4278190080
-7.2690349 8.771574 -33.267006 4278190080
-2.5625 13.5 -51.200001 4278190080
-0.227273 9.818182 -37.236362 4278190080
1.6875 13.5 -51.200001 4278190080
4.375 13.5 -51.200001 4278190080
8.3125 13.5 -51.200001 4278190080
3.1602211 4.7734809 -18.103868 4278190080
17.875 13.5 -51.200001 4278190080
18.375 13.5 -51.200001 4278190080
30.875 13.5 -51.200001 4278190080
-6.152524 3.694952 -14.078626 4278190080
-9.4186468 6.2888479 -23.961975 4278190080
-13.0625 13.4375 -51.200001 4278190080
-4.7639098 5.1729321 -19.710075 4278190080
-4.6232982 5.204236 -19.82935 4278190080
-6.9242048 8.410758 -32.046944 4278190080
-4.0350881 7.543859 -28.74386 4278190080
-2.875 13.4375 -51.200001 4278190080
-0.94647902 9.6901407 -36.921692 4278190080
4.125 13.4375 -51.200001 4278190080
4.125 13.4375 -51.200001 4278190080
4.4375 13.4375 -51.200001 4278190080
8.0625 13.4375 -51.200001 4278190080
3.1599441 4.7844229 -18.229763 4278190080
3.182198 4.7844229 -18.229763 4278190080
10.375 13.4375 -51.200001 4278190080
28.9375 13.4375 -51.200001 4278190080
29.625 13.4375 -51.200001 4278190080
-6.912621 8.3106794 -31.813593 4278190080
-8.5625 13.375 -51.200001 4278190080
-7.75 13.375 -51.200001 4278190080
-1.275498 4.0140681 -15.366003 4278190080
-1.033708 9.6179771 -36.817978 4278190080
-0.54390901 9.6997166 -37.130878 4278190080
0.225352 9.6450701 -36.921692 4278190080
1.191977 9.8108883 -37.556446 4278190080
1.6875 13.375 -51.200001 4278190080
3.177465 4.822535 -18.460846 4278190080
30.0625 13.375 -51.200001 4278190080
30.0625 13.375 -51.200001 4278190080
-16.401255 10.683386 -41.088402 4278190080
-16.099072 10.551084 -40.579567 4278190080
-4.941896 5.211009 -20.04159 4278190080
-6.7777781 7.8888888 -30.340742 4278190080
-6.725173 7.8706698 -30.27067 4278190080
-3.4237289 7.2203388 -27.769491 4278190080
-1.391304 4.0047002 -15.402116 4278190080
-1.297297 9.2108107 -35.424866 4278190080
-0.49717501 9.6271191 -37.02599 4278190080
0.49717501 9.6271191 -37.02599 4278190080
10.8125 13.3125 -51.200001 4278190080
17.9375 13.3125 -51.200001 4278190080
19.25 13.3125 -51.200001 4278190080
13.894737 8.968421 -34.492634 4278190080
-6.4357538 3.7899439 -14.644917 4278190080
-6.4357538 3.7899439 -14.644917 4278190080
-16.503145 10.666667 -41.217609 4278190080
-5.5028381 3.8501699 -14.877639 4278190080
-8.375 13.25 -51.200001 4278190080
-8.375 13.25 -51.200001 4278190080
-7.625 13.25 -51.200001 4278190080
-6.8656721 12.656716 -48.907463 4278190080
-1.65043 9.7191973 -37.556446 4278190080
-1.502762 9.3701658 -36.207737 4278190080
1.087819 9.6090651 -37.130878 4278190080
4.25 13.25 -51.200001 4278190080
4.25 13.25 -51.200001 4278190080
5.125 13.25 -51.200001 4278190080
5.1875 13.25 -51.200001 4278190080
8.1875 13.25 -51.200001 4278190080
8.1875 13.25 -51.200001 4278190080
3.2183909 4.8735628 -18.832184 4278190080
9.9375 13.25 -51.200001 4278190080
10.4375 13.25 -51.200001 4278190080
10.4375 13.25 -51.200001 4278190080
11.75 13.25 -51.200001 4278190080
11.75 13.25 -51.200001 4278190080
12.25 13.25 -51.200001 4278190080
