# .PCD v0.7 - Point Cloud Data file format
VERSION 0.7
FIELDS x y z rgb
SIZE 4 4 4 4
TYPE F F F U
COUNT 1 1 1 1
WIDTH 1160
HEIGHT 1
VIEWPOINT 0 0 0 1 0 0 0
POINTS 1160
DATA ascii
5.6962328 3.9270959 -15.926125 4278190080
8.103651 3.8068321 -15.438398 4278190080
13.258649 5.3245468 -21.59341 4278190080
-7.3647642 3.9900739 -16.262035 4278190080
-3.016988 1.8210649 -7.4219708 4278190080
-8.209424 5.612566 -22.874695 4278190080
-2.473815 8.0199499 -32.686283 4278190080
-0.45161301 2.1612899 -8.8086023 4278190080
0.52777803 5.583333 -22.755556 4278190080
6.3536229 4.6608701 -18.995943 4278190080
5.402791 2.9916279 -12.192744 4278190080
8.0848045 3.787986 -15.438398 4278190080
7.9815669 3.7050691 -15.100461 4278190080
8.3532009 3.549669 -14.467109 4278190080
11.244445 4.4666672 -18.204445 4278190080
-7.7519379 4.134367 -16.934366 4278190080
-5.3006129 3.9263799 -16.082455 4278190080
-3.2981601 3.9263799 -16.082455 4278190080
-0.49295801 2.816901 -11.538029 4278190080
0.41594499 5.545927 -22.716118 4278190080
0.51743799 2.0291691 -8.3114777 4278190080
3.589942 6.1895552 -25.352419 4278190080
1.459318 2.0997379 -8.6005249 4278190080
6.3000002 5 -20.48 4278190080
6.3536229 4.637681 -18.995943 4278190080
5.6844721 3.9751551 -16.282236 4278190080
5.6936069 3.8600719 -15.810857 4278190080
-8.6222219 4.4222221 -18.204445 4278190080
-8.4875355 4.4099722 -18.154016 4278190080
-7.731266 4.1136951 -16.934366 4278190080
-3.325953 3.9163589 -16.122017 4278190080
-3.2795031 3.9552801 -16.282236 4278190080
0.492652 2.228132 -9.1722889 4278190080
3.589942 6.158607 -25.352419 4278190080
6.1283021 6.0075469 -24.730566 4278190080
5.847826 4.326087 -17.808697 4278190080
7.9907732 3.6724341 -15.117878 4278190080
8.3157892 3.4912281 -14.37193 4278190080
-7.9471598 4.1849399 -17.314663 4278190080
-4.604219 2.673418 -11.060928 4278190080
-5.2801991 3.945205 -16.32279 4278190080
-0.52021098 2.7838309 -11.517751 4278190080
0.52777803 5.5 -22.755556 4278190080
2.467797 5.3694921 -22.215593 4278190080
5.673913 4.304348 -17.808697 4278190080
5.834013 4.310204 -17.832926 4278190080
5.855783 4.310204 -17.832926 4278190080
3.42275 1.792869 -7.4177699 4278190080
-8.6222219 4.3777781 -18.204445 4278190080
-3.3 3.9400001 -16.384001 4278190080
-3.216285 4.0101781 -16.675827 4278190080
0.538755 2.0025411 -8.3273191 4278190080
0.54579902 1.991156 -8.2799749 4278190080
2.513514 5.3243241 -22.140541 4278190080
3.45946 6.5530152 -27.249897 4278190080
5.652174 4.282609 -17.808697 4278190080
5.6670842 3.944931 -16.404507 4278190080
5.5835781 3.0811341 -12.812512 4278190080
-8.7374306 4.3798881 -18.306145 4278190080
-7.5425668 3.9847519 -16.654638 4278190080
-7.2315269 3.8620689 -16.141872 4278190080
-5.3934841 3.9298251 -16.425062 4278190080
-3.3757801 3.9151061 -16.363546 4278190080
0.58333302 5.4444451 -22.755556 4278190080
0.69808 5.47295 -22.874695 4278190080
0.49403501 2.200702 -9.1980352 4278190080
1.332459 2.0563929 -8.5948858 4278190080
1.354167 2.041667 -8.5333338 4278190080
1.364583 2.041667 -8.5333338 4278190080
1.772727 2.227273 -9.3090906 4278190080
5.6457772 4.27248 -17.857222 4278190080
5.578125 3.0625 -12.8 4278190080
-7.9893761 4.1434259 -17.406641 4278190080
-4.582983 2.628475 -11.042292 4278190080
-3.289911 3.984674 -16.739719 4278190080
0.305556 5.416667 -22.755556 4278190080
0.67015702 5.4450259 -22.874695 4278190080
0.58512002 1.967213 -8.2643127 4278190080
2.5675681 5.2702699 -22.140541 4278190080
5.6741848 3.909775 -16.425062 4278190080
-5.530612 3.9591839 -16.718369 4278190080
-3.9118941 6.8370042 -28.870485 4278190080
-0.36676201 1.778797 -7.5112901 4278190080
0.52777803 5.3888888 -22.755556 4278190080
2.45946 5.2432432 -22.140541 4278190080
4.585907 2.4576409 -10.377831 4278190080
-5.4216561 3.933758 -16.697071 4278190080
-5.0526309 3.7796819 -16.043085 4278190080
-3.9558499 6.8167772 -28.934217 4278190080
-3.2326529 6.3020411 -26.749388 4278190080
-0.51050597 2.4031129 -10.200156 4278190080
-0.30873999 1.7525541 -7.4388189 4278190080
-0.375801 2.197865 -9.328968 4278190080
0.33333299 5.3611112 -22.755556 4278190080
4.5625 2.4124999 -10.24 4278190080
-7.9043832 4.0796809 -17.406641 4278190080
-5.072216 3.760098 -16.043085 4278190080
-0.48484799 2.386946 -10.184305 4278190080
0.5 5.333333 -22.755556 4278190080
0.64111501 5.3519158 -22.834843 4278190080
1.638432 3.883692 -16.570417 4278190080
1.36904 2.006532 -8.561202 4278190080
1.36904 2.006532 -8.561202 4278190080
6.0920501 4.2845192 -18.280615 4278190080
-8.9678411 4.6799388 -20.072283 4278190080
-5.3605089 3.8929939 -16.697071 4278190080
0.52777803 5.3055549 -22.755556 4278190080
6.1209559 4.298172 -18.434881 4278190080
4.33358 2.2553511 -9.6732101 4278190080
3.60095 1.8147269 -7.7833729 4278190080
-7.9591842 3.8775511 -16.718369 4278190080
-8.9923429 4.655437 -20.072283 4278190080
2.4429531 5.1006708 -21.991947 4278190080
3.430928 6.2680411 -27.025154 4278190080
2.6318541 3.968668 -17.111227 4278190080
4.0968862 2.103806 -9.0707264 4278190080
3.6233611 1.811681 -7.811204 4278190080
8.2969437 3.3187771 -14.309171 4278190080
-7.9591842 3.8571429 -16.718369 4278190080
-8.1929073 4.289361 -18.591774 4278190080
-8.57971 6.26087 -27.13706 4278190080
-1.4328361 1.735936 -7.5242252 4278190080
5.7719302 3.315789 -14.37193 4278190080
5.7768049 3.3085339 -14.340482 4278190080
-8.2156029 4.2666669 -18.591774 4278190080
-8.1929073 4.2666669 -18.591774 4278190080
-5.4968071 3.841635 -16.739719 4278190080
-8.57971 6.2277431 -27.13706 4278190080
-1.472335 1.751893 -7.63378 4278190080
-1.406593 1.7397341 -7.5807981 4278190080
-1.0353889 3.041456 -13.252983 4278190080
-0.85656601 3.038384 -13.239596 4278190080
2.4676621 4.9883909 -21.73665 4278190080
3.440501 6.2797489 -27.363674 4278190080
11.069583 5.9801192 -26.058052 4278190080
12 4.476191 -19.504763 4278190080
-5.408741 3.845758 -16.847301 4278190080
-5.3401799 3.840822 -16.825674 4278190080
0.977099 5.7099242 -25.013741 4278190080
9.6043653 4.0818548 -17.881582 4278190080
-1.426927 1.7123131 -7.5415421 4278190080
-0.78402901 2.7005441 -11.894011 4278190080
0.52961701 5.184669 -22.834843 4278190080
1.0038019 5.657794 -24.918631 4278190080
2.441128 4.9353232 -21.73665 4278190080
6.6288528 3.669544 -16.161776 4278190080
9.617486 4.0655742 -17.906012 4278190080
17.398058 7.2233009 -31.813593 4278190080
12.005943 4.4219909 -19.47578 4278190080
-0.82833803 2.6884651 -11.904814 4278190080
4.5714288 3.915344 -17.337566 4278190080
6.6206899 3.6453199 -16.141872 4278190080
-1.92233 3.5728149 -15.906796 4278190080
-0.97058803 2.7058821 -12.047059 4278190080
3.822222 5.4518518 -24.272593 4278190080
5.7462358 3.165591 -14.093763 4278190080
6.6091251 3.6300859 -16.161776 4278190080
17.507246 7.1111112 -31.659904 4278190080
-10.58317 5.7299409 -25.650099 4278190080
-10.551859 5.7299409 -25.650099 4278190080
-9.3380775 5.2099638 -23.32242 4278190080
-7.7142859 4.3571429 -19.504763 4278190080
-1.535545 1.734597 -7.7649288 4278190080
-1.487059 1.722353 -7.7101178 4278190080
-0.71585602 2.2982731 -10.288226 4278190080
0.40646699 6.762125 -30.27067 4278190080
3.833962 5.524529 -24.730566 4278190080
5.6790652 3.111583 -13.929012 4278190080
-9.6000004 6.0666671 -27.306667 4278190080
-9.6000004 6.0333328 -27.306667 4278190080
-0.740973 2.273155 -10.288226 4278190080
-0.76327598 2.6066611 -11.79766 4278190080
0.444444 6.7037039 -30.340742 4278190080
5.5666671 3.0166669 -13.653334 4278190080
12.720661 4.786777 -21.664793 4278190080
-11.604396 5.274725 -24.005861 4278190080
-11.575091 5.274725 -24.005861 4278190080
-1.401392 1.670534 -7.6027842 4278190080
-4.2270741 6.288209 -28.618341 4278190080
-1.450549 2.637363 -12.002931 4278190080
1.371429 8.2285719 -37.449142 4278190080
4.166667 6 -27.306667 4278190080
12.747108 4.7603312 -21.664793 4278190080
8.6523609 3.0901289 -14.063519 4278190080
-12.035714 6.3928571 -29.257143 4278190080
-10.710204 5.8448982 -26.749388 4278190080
-5.5253329 3.8186669 -17.476267 4278190080
-2.063349 1.61991 -7.4135752 4278190080
-4.1171551 5.991632 -27.420921 4278190080
4.1171551 5.991632 -27.420921 4278190080
12.715232 4.7417221 -21.700663 4278190080
10.335917 3.700258 -16.934366 4278190080
-12.375286 6.5171618 -29.993593 4278190080
-5.5466671 3.797333 -17.476267 4278190080
-1.425454 2.5890911 -11.915637 4278190080
-1.877551 3.632653 -16.718369 4278190080
-1.877551 3.632653 -16.718369 4278190080
0.52777803 4.9444451 -22.755556 4278190080
0.555556 4.9444451 -22.755556 4278190080
6.702703 3.498771 -16.102211 4278190080
10.375 3.708333 -17.066668 4278190080
-12.665106 6.632318 -30.69602 4278190080
-1.8094029 3.598475 -16.654638 4278190080
-1.8094029 3.598475 -16.654638 4278190080
-2.9913039 6.1565218 -28.493914 4278190080
-0.41865799 1.610922 -7.4557452 4278190080
0.528696 4.9252181 -22.795132 4278190080
0.64674902 4.9771528 -23.035501 4278190080
8.6803017 3.048439 -14.108934 4278190080
8.7147474 3.048439 -14.108934 4278190080
-5.6432428 3.8054049 -17.712433 4278190080
-2.227273 1.6 -7.4472728 4278190080
-2.9913039 6.1217389 -28.493914 4278190080
7.4516129 5.6774192 -26.425806 4278190080
5.060606 2.666667 -12.412122 4278190080
5.090909 2.666667 -12.412122 4278190080
14.28 7.04 -32.768002 4278190080
8.6896553 3.034483 -14.124138 4278190080
-0.68678701 1.877934 -8.7908783 4278190080
0.40740699 6.481482 -30.340742 4278190080
7.204082 3.571429 -16.718369 4278190080
-3.1080029 2.1631701 -10.184305 4278190080
-3.00458 2.125191 -10.005496 4278190080
-2.1962559 1.579126 -7.4345999 4278190080
-0.43735799 1.585421 -7.4642372 4278190080
0.50526297 4.8842111 -22.995089 4278190080
0.91275197 4.6711411 -21.991947 4278190080
6.7053142 3.362319 -15.829952 4278190080
5.9919028 2.8178141 -13.266397 4278190080
-11.320755 6.5283022 -30.913208 4278190080
-3.054657 2.1308701 -10.090223 4278190080
-2.1351349 1.5585589 -7.3801799 4278190080
-0.66891402 1.866487 -8.8383007 4278190080
-0.61784297 1.842876 -8.7264986 4278190080
-0.47850499 1.724611 -8.1664801 4278190080
0.444444 6.4074068 -30.340742 4278190080
6.9215679 3.3921571 -16.062746 4278190080
6.0181999 2.7987871 -13.252983 4278190080
-0.73762703 1.8657629 -8.8862371 4278190080
4.865159 2.4904981 -11.86172 4278190080
8.545455 3.909091 -18.618181 4278190080
-2.8833089 2.020679 -9.6803551 4278190080
-0.66035199 1.85115 -8.8682003 4278190080
4.5066161 5.1720228 -24.777315 4278190080
2.586086 1.922698 -9.2109632 4278190080
6.6431479 3.712347 -17.784533 4278190080
4.870822 2.471545 -11.840289 4278190080
8.558692 4.0653791 -19.47578 4278190080
10.832787 4.4852462 -21.487213 4278190080
-8.4759207 3.8526909 -18.565439 4278190080
-8.4114285 3.8857141 -18.724571 4278190080
-2.1621621 1.531532 -7.3801799 4278190080
-0.37165001 1.620012 -7.806551 4278190080
-0.26608801 1.9667391 -9.4773684 4278190080
0.65831798 4.8658319 -23.447586 4278190080
4.484848 5.151515 -24.824244 4278190080
6.621438 3.6906381 -17.784533 4278190080
6.363636 3.090909 -14.894546 4278190080
6.4181819 3.090909 -14.894546 4278190080
8.5952377 4.0476189 -19.504763 4278190080
8.8835821 4.059701 -19.562984 4278190080
10.832787 4.4590158 -21.487213 4278190080
-8.6572237 3.8300281 -18.565439 4278190080
-8.6345606 3.8300281 -18.565439 4278190080
-8.5106382 3.8354609 -18.591774 4278190080
-1.307578 2.0089149 -9.7378902 4278190080
-0.46824399 1.683686 -8.1613951 4278190080
-0.41197601 1.619162 -7.8486228 4278190080
2.581363 1.880389 -9.1148825 4278190080
2.5359299 1.815984 -8.8026867 4278190080
2.550101 1.818426 -8.8145256 4278190080
6.631433 3.7607789 -18.229763 4278190080
6.5959182 3.678911 -17.832926 4278190080
6.6431479 3.6689279 -17.784533 4278190080
-8.4652481 3.8127661 -18.591774 4278190080
-8.3885717 3.8399999 -18.724571 4278190080
-8.3657141 3.8399999 -18.724571 4278190080
-8.3657141 3.8399999 -18.724571 4278190080
-1.099027 1.538638 -7.5026898 4278190080
-0.41001201 1.601907 -7.811204 4278190080
1.030509 4.555932 -22.215593 4278190080
5.4281101 4.3424878 -21.174799 4278190080
6.4110861 3.1039259 -15.135335 4278190080
8.5762711 2.8474579 -13.884746 4278190080
-8.4425545 3.790071 -18.591774 4278190080
-0.47999999 1.67 -8.1920004 4278190080
-0.38610899 1.57269 -7.7146559 4278190080
-0.36427301 1.559837 -7.6516061 4278190080
1.030509 4.5288129 -22.215593 4278190080
1.024631 4.3875198 -21.522495 4278190080
-1.085886 1.5951951 -7.8721919 4278190080
-0.24964499 1.883688 -9.295887 4278190080
1.024631 4.361248 -21.522495 4278190080
10.328589 3.4359641 -16.956274 4278190080
-8.840909 3.75 -18.618181 4278190080
-0.85144103 1.95122 -9.6875095 4278190080
-0.52355999 1.727749 -8.5780106 4278190080
-0.41411799 1.552941 -7.7101178 4278190080
-0.21348301 1.853933 -9.2044945 4278190080
10.321243 3.4196889 -16.978239 4278190080
-8.75 3.727273 -18.618181 4278190080
-8.4305944 3.7167139 -18.565439 4278190080
-8.3547926 3.7539339 -18.75136 4278190080
-1.195998 1.544438 -7.7146559 4278190080
-1.18025 1.560976 -7.7972641 4278190080
2.5949011 1.858357 -9.2827196 4278190080
8.5866098 2.788523 -13.929012 4278190080
-8.772727 3.704545 -18.618181 4278190080
-4.521739 2.9839821 -14.996797 4278190080
-0.82595903 1.923304 -9.6660767 4278190080
-0.36036 1.468468 -7.3801799 4278190080
1.525272 1.668586 -8.3859243 4278190080
-8.818182 3.681818 -18.618181 4278190080
-5.9795618 3.783942 -19.1346 4278190080
-1.150389 1.553026 -7.8533249 4278190080
-0.132063 1.645714 -8.322032 4278190080
1.564994 1.667954 -8.4344921 4278190080
10.375 3.375 -17.066668 4278190080
-8.704545 3.659091 -18.618181 4278190080
-8.5997171 3.643564 -18.539181 4278190080
-6.7496819 3.2731891 -16.654638 4278190080
-9.9450979 5.050981 -25.700392 4278190080
-1.142166 1.5583791 -7.9293408 4278190080
-1.066026 1.546219 -7.8674669 4278190080
-0.214013 1.640764 -8.3485355 4278190080
1.527492 1.556495 -7.9197578 4278190080
2.422647 1.695853 -8.6288347 4278190080
10.483487 3.4029059 -17.314663 4278190080
8.669528 2.763948 -14.063519 4278190080
-8.863636 3.636364 -18.618181 4278190080
-6.7700129 3.2528591 -16.654638 4278190080
-1.238771 1.513002 -7.746572 4278190080
-1.238771 1.513002 -7.746572 4278190080
-1.143538 1.524717 -7.806551 4278190080
-0.42342299 1.4414411 -7.3801799 4278190080
10.395833 3.333333 -17.066668 4278190080
-5.3825641 2.609231 -13.443282 4278190080
-1.3429511 1.668197 -8.5948858 4278190080
-0.109046 1.576208 -8.1209421 4278190080
8.7147474 2.7384281 -14.108934 4278190080
-1.453588 1.664253 -8.6288347 4278190080
-0.217494 1.49409 -7.746572 4278190080
-0.139825 1.578027 -8.1817732 4278190080
3.681071 1.538649 -7.977602 4278190080
10.265306 3.2244899 -16.718369 4278190080
-5.3771839 2.581706 -13.470915 4278190080
-9.5568399 4.8400769 -25.254721 4278190080
-1.469816 1.648294 -8.6005249 4278190080
-0.12727299 1.427273 -7.4472728 4278190080
-0.12911201 1.55928 -8.1360645 4278190080
1.444934 2.76652 -14.435243 4278190080
1.5375381 1.508709 -7.8721919 4278190080
5.6121998 5.4727669 -28.555992 4278190080
5.647059 5.4727669 -28.555992 4278190080
5.6819172 5.4727669 -28.555992 4278190080
6.2156572 3.7104869 -19.36071 4278190080
3.7107229 1.566085 -8.1715708 4278190080
10.257982 3.208174 -16.739719 4278190080
-9.5568399 4.809248 -25.254721 4278190080
-0.98198199 1.405405 -7.3801799 4278190080
-0.17746601 1.457093 -7.6516061 4278190080
1.613169 1.711934 -8.9898491 4278190080
2.361001 1.644269 -8.6345196 4278190080
10.355383 3.237354 -17.000259 4278190080
-8.666667 3.974359 -21.005129 4278190080
-5.7803469 3.5838151 -18.94104 4278190080
-1.39775 1.641297 -8.6745195 4278190080
2.107502 1.464855 -7.7419968 4278190080
6.1611938 3.701493 -19.562984 4278190080
4.403769 1.66891 -8.8204575 4278190080
10.388527 3.233377 -17.088919 4278190080
-5.8372092 3.5813949 -19.051163 4278190080
2.1176469 3.623529 -19.275295 4278190080
2.141176 3.623529 -19.275295 4278190080
10.531002 3.9173291 -20.838156 4278190080
10.409388 3.2125161 -17.088919 4278190080
-7.786499 3.843014 -20.576452 4278190080
-5.8372092 3.55814 -19.051163 4278190080
-1.679883 1.797357 -9.6234951 4278190080
1.383592 2.713969 -14.531264 4278190080
2.162827 3.7603691 -20.133947 4278190080
2.284189 1.6330889 -8.7439632 4278190080
3.0893371 1.410951 -7.5545821 4278190080
3.783648 1.539623 -8.2435217 4278190080
10.449409 3.21682 -17.223654 4278190080
-7.6999998 3.8 -20.48 4278190080
-0.13513499 1.369369 -7.3801799 4278190080
1.35412 2.708241 -14.595991 4278190080
2.162827 3.735791 -20.133947 4278190080
2.306977 1.615947 -8.7091036 4278190080
3.782002 1.541191 -8.3062115 4278190080
3.8008821 1.532451 -8.2591057 4278190080
3.79 1.52 -8.1920004 4278190080
4.3881402 1.638814 -8.832345 4278190080
10.449409 3.1957951 -17.223654 4278190080
-5.839416 3.5270071 -19.1346 4278190080
1.4514771 5.0970459 -27.652321 4278190080
4.58319 4.144083 -22.482332 4278190080
2.271739 1.641304 -8.9043484 4278190080
3.33494 1.455422 -7.8959041 4278190080
3.3976469 1.421176 -7.7101178 4278190080
3.8391831 1.5418 -8.3645182 4278190080
10.097777 3.5792589 -19.418074 4278190080
4.4108109 1.621622 -8.8562164 4278190080
10.065282 3.5608311 -19.446884 4278190080
8.6881723 2.5806451 -14.093763 4278190080
-10.398323 4.9979029 -27.478407 4278190080
-6.5863452 4.787148 -26.319679 4278190080
-0.44741601 1.44924 -7.9679031 4278190080
3.2904389 1.4335541 -7.88166 4278190080
3.2522521 1.342342 -7.3801799 4278190080
8.0588236 2.9215691 -16.062746 4278190080
9.833333 3.5476191 -19.504763 4278190080
7.781321 2.7152619 -14.928474 4278190080
-6.25 4.625 -25.6 4278190080
1.556886 3.54491 -19.621557 4278190080
1.721212 3.5878789 -19.859394 4278190080
3.3580251 1.392122 -7.705585 4278190080
3.3758039 1.383986 -7.6605501 4278190080
7.6004081 2.4138629 -13.36106 4278190080
-5.446208 4.1481481 -23.116755 4278190080
3.0926659 1.337123 -7.4515071 4278190080
3.3269229 1.413462 -7.8769231 4278190080
3.811465 1.498089 -8.3485355 4278190080
5.656846 2.0381279 -11.358059 4278190080
11.086817 3.7813499 -21.07267 4278190080
11.086817 3.7813499 -21.07267 4278190080
7.6337738 2.3926749 -13.333876 4278190080
6.7288432 2.0310881 -11.318826 4278190080
7.2352939 2.1617651 -12.047059 4278190080
7.2660551 2.1577981 -12.024954 4278190080
-0.45714301 1.420061 -7.9679031 4278190080
4.501792 4.1863799 -23.489607 4278190080
4.5304661 4.1863799 -23.489607 4278190080
7.2794118 2.147059 -12.047059 4278190080
7.6045632 2.2205319 -12.459315 4278190080
-0.646267 1.419829 -8.0215425 4278190080
0.110957 3.2177529 -18.179195 4278190080
0.55944097 2.703963 -15.276457 4278190080
0.578089 2.703963 -15.276457 4278190080
1.6352201 3.647799 -20.608805 4278190080
3.2795031 4.8033128 -27.13706 4278190080
7.5769229 5.5769229 -31.507692 4278190080
3.2972009 1.381775 -7.806551 4278190080
3.313946 1.376855 -7.7787542 4278190080
3.2388661 1.3418159 -7.5807981 4278190080
6.0793948 2.192817 -12.388658 4278190080
6.0018568 2.1541319 -12.170102 4278190080
6.7301588 2.3015871 -13.003175 4278190080
7.7218118 2.444679 -13.811591 4278190080
7.6065569 2.377049 -13.429508 4278190080
7.201479 2.144177 -12.113863 4278190080
7.6234388 2.228626 -12.59097 4278190080
-10.689655 4.965517 -28.248276 4278190080
-9.2260532 4.4137931 -25.109579 4278190080
-5.4647889 4.0563378 -23.076057 4278190080
-0.37272701 1.309091 -7.4472728 4278190080
3.2315271 5.6748772 -32.283745 4278190080
2.766571 3.319885 -18.886456 4278190080
2.9767439 2.9767439 -16.934366 4278190080
2.997416 2.9767439 -16.934366 4278190080
1.954098 1.888525 -10.743607 4278190080
1.949113 1.776407 -10.105783 4278190080
3.1217289 1.31058 -7.4557452 4278190080
6.7753482 2.2902579 -13.029026 4278190080
7.698113 2.4150939 -13.739203 4278190080
7.2243772 2.127424 -12.102678 4278190080
-9.2567053 4.383142 -25.109579 4278190080
0.089135997 3.18663 -18.255154 4278190080
0.59604198 2.6635621 -15.258673 4278190080
1.309293 3.1733699 -18.179195 4278190080
1.38652 3.1471801 -18.029161 4278190080
1.907692 1.76 -10.082461 4278190080
3.1531529 1.288288 -7.3801799 4278190080
3.1873231 1.29485 -7.4177699 4278190080
13.466377 4.9631238 -28.432104 4278190080
6.6240988 2.356334 -13.498661 4278190080
7.2252631 2.408421 -13.797052 4278190080
7.324049 2.1244199 -12.170102 4278190080
7.692307 2.2 -12.603077 4278190080
-9.7919998 4.5440001 -26.214401 4278190080
-1.8288291 1.279279 -7.3801799 4278190080
-0.443674 1.312536 -7.5720401 4278190080
0.33333299 2.6296301 -15.170371 4278190080
0.35144499 2.62659 -15.152833 4278190080
3.3462601 3.1468141 -18.154016 4278190080
7.1026249 2.7112169 -15.64105 4278190080
7.9207921 2.49945 -14.419362 4278190080
-9.2190475 3.5809519 -20.80508 4278190080
-9.7919998 4.5120001 -26.214401 4278190080
-0.34339401 1.513078 -8.7908783 4278190080
0.430493 2.5291481 -14.694171 4278190080
2.541714 2.5782859 -14.979657 4278190080
4.0708532 3.6328499 -21.106602 4278190080
4.0966182 3.6328499 -21.106602 4278190080
4.7142859 4.0285721 -23.405714 4278190080
6.9526949 2.481848 -14.419362 4278190080
6.630928 2.325773 -13.512577 4278190080
5.9118171 1.989418 -11.558377 4278190080
5.7660122 1.926558 -11.193169 4278190080
7.129364 2.316222 -13.457085 4278190080
0.51612902 2.5806451 -15.100461 4278190080
2.808717 2.711864 -15.868281 4278190080
3.1959031 2.868118 -16.782587 4278190080
3.236876 2.868118 -16.782587 4278190080
3.4755781 2.8791771 -16.847301 4278190080
7.7289839 2.810539 -16.445671 4278190080
5.7834611 1.909633 -11.174084 4278190080
7.463645 2.1152029 -12.37696 4278190080
7.670814 2.1435411 -12.542775 4278190080
-1.972973 1.252252 -7.3801799 4278190080
-0.40997201 1.540166 -9.0770082 4278190080
-0.376344 1.494624 -8.8086023 4278190080
-0.60150403 4.1804509 -24.637594 4278190080
-0.57142901 4.1804509 -24.637594 4278190080
0.46689099 2.4960721 -14.710663 4278190080
4.3262839 3.3595171 -19.799397 4278190080
3.6380091 2.515837 -14.827149 4278190080
7.672863 2.7558861 -16.241884 4278190080
7.484848 2.106061 -12.412122 4278190080
-9.2082672 3.510334 -20.838156 4278190080
-2.002275 1.255973 -7.4557452 4278190080
-1.918919 1.243243 -7.3801799 4278190080
-1.837104 1.2488689 -7.4135752 4278190080
0.22191399 3.062413 -18.179195 4278190080
2.737643 4.1977191 -24.918631 4278190080
3.3509021 3.062413 -18.179195 4278190080
4.3262839 3.3353469 -19.799397 4278190080
3.6380091 2.4977379 -14.827149 4278190080
3.0696089 1.249575 -7.4177699 4278190080
8.6031294 3.140825 -18.644667 4278190080
8.5770864 3.123055 -18.539181 4278190080
5.808219 1.890411 -11.221918 4278190080
5.821918 1.890411 -11.221918 4278190080
7.580749 2.3614969 -14.018396 4278190080
-9.22293 3.4904461 -20.871338 4278190080
-1.908007 1.244747 -7.4430442 4278190080
-5.4446759 4.5762 -27.363674 4278190080
-0.672189 1.2970411 -7.7557402 4278190080
-0.626706 1.30089 -7.7787542 4278190080
-0.626706 1.30089 -7.7787542 4278190080
-0.64584899 1.669459 -9.9826345 4278190080
0.19944599 3.036011 -18.154016 4278190080
4.0146518 4.0146518 -24.005861 4278190080
3.333333 3.044445 -18.204445 4278190080
3.333333 3.044445 -18.204445 4278190080
2.541714 1.252571 -7.4898291 4278190080
3.108108 1.234234 -7.3801799 4278190080
7.1644659 2.631453 -15.734934 4278190080
11.294118 3.3061841 -19.769533 4278190080
-11.428572 4.037106 -24.317625 4278190080
-9.2551508 3.448494 -20.772108 4278190080
-9.2587414 3.8041959 -22.914686 4278190080
-9.151515 4.121212 -24.824244 4278190080
-2.001142 1.242718 -7.4855509 4278190080
-5.4446759 4.542798 -27.363674 4278190080
-0.66115701 1.284534 -7.7374258 4278190080
-0.55107999 1.270286 -7.6516061 4278190080
-0.45683199 1.479266 -8.9104013 4278190080
-0.437096 1.564342 -9.4228611 4278190080
1.488372 3.3736429 -20.321241 4278190080
1.513178 3.3736429 -20.321241 4278190080
3.2831171 2.825974 -17.022339 4278190080
2.5398281 1.246991 -7.5112901 4278190080
7.1346149 2.6153851 -15.753846 4278190080
5.8406172 1.86461 -11.231534 4278190080
7.4734612 2.309979 -13.914226 4278190080
11.294118 3.2820511 -19.769533 4278190080
-9.0168457 3.3078101 -20.072283 4278190080
-9.2190475 3.428571 -20.80508 4278190080
-8.9491529 3.6610169 -22.215593 4278190080
-7.6287999 3.4560001 -20.971519 4278190080
-0.39279899 3.535188 -21.452045 4278190080
0.25078401 3.3855801 -20.544201 4278190080
2.5263159 1.222411 -7.4177699 4278190080
9.2553844 3.323077 -20.164923 4278190080
7.4230361 2.3250811 -14.108934 4278190080
7.3728809 2.288136 -13.884746 4278190080
-9.18612 3.3817029 -20.673817 4278190080
-8.9491529 3.633898 -22.215593 4278190080
-7.7046552 3.441412 -21.038845 4278190080
-0.35897401 3.4358971 -21.005129 4278190080
0.225705 3.360502 -20.544201 4278190080
3.9189191 3.6216221 -22.140541 4278190080
2.531532 1.207207 -7.3801799 4278190080
5.7386851 1.830914 -11.193169 4278190080
-1.8648649 1.198198 -7.3801799 4278190080
-0.679245 1.254717 -7.728302 4278190080
-0.384615 3.4102559 -21.005129 4278190080
3.366179 2.833555 -17.452997 4278190080
4.4319248 3.330204 -20.512051 4278190080
10.676259 3.827338 -23.5741 4278190080
5.7534251 1.821918 -11.221918 4278190080
-1.936937 1.189189 -7.3801799 4278190080
-0.63170302 1.244549 -7.7237482 4278190080
0.313079 2.175077 -13.498661 4278190080
0.50363201 1.7046 -10.578854 4278190080
0.52648503 1.695024 -10.519423 4278190080
3.358289 2.823529 -17.522995 4278190080
3.7459531 2.630137 -16.32279 4278190080
4.8918562 2.8197601 -17.499599 4278190080
-0.83387601 1.365472 -8.5388927 4278190080
2.5146041 2.9151599 -18.229763 4278190080
2.5146041 2.9151599 -18.229763 4278190080
3.726027 2.6102121 -16.32279 4278190080
4.8704939 2.798398 -17.499599 4278190080
5.4886069 2.6531651 -16.591393 4278190080
2.513514 1.18018 -7.3801799 4278190080
0.28012401 2.142122 -13.498661 4278190080
3.8178511 3.788707 -23.874681 4278190080
4 3.823529 -24.094118 4278190080
4.5409522 3.961905 -24.966095 4278190080
4.580153 3.969466 -25.013741 4278190080
4.5172 1.233689 -7.7741399 4278190080
-2.3155601 2.245919 -14.26246 4278190080
-0.81782401 1.352556 -8.5892534 4278190080
-0.89534903 1.5 -9.5255814 4278190080
-0.90387899 1.740304 -11.051602 4278190080
0.38888901 2.3888891 -15.170371 4278190080
1.266718 1.586472 -10.074712 4278190080
1.901345 2.3139009 -14.694171 4278190080
2.5146041 2.8706541 -18.229763 4278190080
3.663825 2.5140071 -15.964921 4278190080
4.992908 2.92766 -18.591774 4278190080
5.2517209 1.5791889 -10.028462 4278190080
5.2439022 1.573171 -9.9902439 4278190080
10.410666 2.7520001 -17.476267 4278190080
15.356322 3.9540229 -25.109579 4278190080
12.709577 3.2401879 -20.576452 4278190080
12.734694 3.2401879 -20.576452 4278190080
-0.62006098 1.556231 -9.9598789 4278190080
-0.54257703 1.543331 -9.8773174 4278190080
-0.31454799 1.3420711 -8.5892534 4278190080
1.242121 1.574174 -10.074712 4278190080
4.7315168 3.984436 -25.500389 4278190080
3.702801 2.494519 -15.964921 4278190080
3.0388689 1.8091871 -11.578798 4278190080
-2.166311 2.166311 -13.973561 4278190080
-0.90710402 1.387978 -8.9530058 4278190080
-0.87209302 1.4767441 -9.5255814 4278190080
-0.92753601 1.7323101 -11.174084 4278190080
-0.85714298 1.727891 -11.145578 4278190080
-0.67381299 1.555896 -10.036141 4278190080
-0.37052599 1.425965 -9.1980352 4278190080
-0.28260899 1.380435 -8.9043484 4278190080
0.981673 1.619123 -10.443984 4278190080
9.045455 2.886364 -18.618181 4278190080
11.133758 3.2356689 -20.871338 4278190080
10.462444 2.992636 -19.303682 4278190080
4.5548849 1.2255729 -7.9054279 4278190080
9.525672 2.484107 -16.023472 4278190080
15.271347 3.855788 -24.871347 4278190080
-2.2203391 2.1355929 -13.884746 4278190080
-2.069989 2.1378579 -13.89947 4278190080
-0.92054802 1.3808219 -8.9775343 4278190080
-0.83599401 1.46299 -9.5117559 4278190080
-0.30663899 1.379877 -8.9713898 4278190080
0.99442202 1.606375 -10.443984 4278190080
10.961326 3.712707 -24.138491 4278190080
10.983051 3.416949 -22.215593 4278190080
10.684124 3.299509 -21.452045 4278190080
11.133758 3.210191 -20.871338 4278190080
4.5880919 1.224787 -7.9630618 4278190080
-11.666667 4.166667 -27.306667 4278190080
-0.88888901 1.371742 -8.9898491 4278190080
-0.87297499 1.70503 -11.174084 4278190080
-0.32524601 1.311475 -8.5948858 4278190080
-0.308328 1.376462 -9.0207844 4278190080
-0.231427 1.314924 -8.6174889 4278190080
-0.175824 2.442003 -16.003908 4278190080
0.380521 2.2650061 -14.843942 4278190080
0.34503999 1.232286 -8.0759087 4278190080
0.99667799 1.66113 -10.886379 4278190080
1.266362 1.5220701 -9.9750385 4278190080
2.5999999 2.7777779 -18.204445 4278190080
2.6222219 2.7777779 -18.204445 4278190080
3.8021979 2.7472529 -18.004396 4278190080
3.23122 1.95122 -12.787513 4278190080
9.045455 2.840909 -18.618181 4278190080
10.684124 3.2733221 -21.452045 4278190080
13.110017 3.2840719 -21.522495 4278190080
13.306931 3.3003299 -21.629044 4278190080
-6.46 2.48 -16.384001 4278190080
-2.234086 2.0369611 -13.457085 4278190080
-2.234086 2.0369611 -13.457085 4278190080
-2.191083 2.1061571 -13.914226 4278190080
-2.402036 2.524173 -16.675827 4278190080
-0.55589098 1.498489 -9.8996983 4278190080
-0.208333 1.291667 -8.5333338 4278190080
-0.21489599 2.422467 -16.003908 4278190080
-0.19536 2.422467 -16.003908 4278190080
0.34467101 2.249433 -14.860771 4278190080
0.54505497 2.1802199 -14.403517 4278190080
1.0232559 1.64784 -10.886379 4278190080
3.9786861 3.5239789 -23.280994 4278190080
3.2502451 1.9470069 -12.862807 4278190080
13.263158 3.2631581 -21.557896 4278190080
-14.961538 4.7307692 -31.507692 4278190080
-6.4441662 2.46926 -16.445671 4278190080
-1.818182 1.597403 -10.638961 4278190080
-2.129925 2.0958469 -13.958679 4278190080
-0.60030597 1.506891 -10.036141 4278190080
0.34428099 2.228765 -14.843942 4278190080
0.35533601 1.214065 -8.0858727 4278190080
3.2659471 1.9313051 -12.862807 4278190080
4.5728149 1.194175 -7.9533982 4278190080
-4.1930122 1.62396 -10.904492 4278190080
-4.1930122 1.62396 -10.904492 4278190080
-2.262295 2 -13.429508 4278190080
-2.262295 2 -13.429508 4278190080
-2.4081631 2.4897959 -16.718369 4278190080
-0.92307699 1.340659 -9.0021982 4278190080
-0.28903201 1.2593549 -8.4562578 4278190080
-0.229615 1.27332 -8.5500326 4278190080
0.54505497 2.1450551 -14.403517 4278190080
1.0269769 1.815814 -12.192744 4278190080
3.9307959 3.3771629 -22.676817 4278190080
3.6923079 2.383394 -16.003908 4278190080
3.3614831 2.010299 -13.498661 4278190080
10.911765 3.5882349 -24.094118 4278190080
11.173771 3.2 -21.487213 4278190080
4.5783129 1.175904 -7.8959041 4278190080
4.6129618 1.182314 -7.9389458 4278190080
13.210526 3.210526 -21.557896 4278190080
13.210526 3.210526 -21.557896 4278190080
-1.844156 1.571429 -10.638961 4278190080
-2.086957 2.0530219 -13.89947 4278190080
-1.0125 1.5125 -10.24 4278190080
-1.0125 1.5125 -10.24 4278190080
-1.125867 1.918731 -12.990288 4278190080
-0.220039 1.267845 -8.5836277 4278190080
-0.132075 2.2830191 -15.456604 4278190080
1.04186 1.80093 -12.192744 4278190080
0.972175 1.099375 -7.4430442 4278190080
1 1.09009 -7.3801799 4278190080
3.6727719 2.363858 -16.003908 4278190080
3.3779609 1.993821 -13.498661 4278190080
5.4391718 1.670406 -11.30906 4278190080
10.331288 2.9693251 -20.103067 4278190080
11.173771 3.17377 -21.487213 4278190080
-0.79077399 1.581549 -10.796705 4278190080
-0.151122 2.266824 -15.474853 4278190080
0.45990899 2.90469 -19.82935 4278190080
0.484115 2.90469 -19.82935 4278190080
1.230769 1.447964 -9.8847666 4278190080
4.336997 3.516484 -24.005861 4278190080
4.1180329 3.147541 -21.487213 4278190080
3.0984681 2.100657 -14.340482 4278190080
3.651135 2.2939069 -15.659738 4278190080
6.2829642 1.847931 -12.615207 4278190080
10.081203 2.887218 -19.710075 4278190080
10.355828 2.9447851 -20.103067 4278190080
10.724458 2.972136 -20.289783 4278190080
-2.0994711 2.0148151 -13.870053 4278190080
-1.052992 1.62735 -11.202735 4278190080
1.2613389 2.056155 -14.154644 4278190080
4.3583179 3.480804 -23.961975 4278190080
4.1442618 3.1213109 -21.487213 4278190080
3.651135 2.274791 -15.659738 4278190080
3.521445 2.148984 -14.793679 4278190080
7.143508 2.168565 -14.928474 4278190080
10.081203 2.863158 -19.710075 4278190080
-2.086957 2.002121 -13.89947 4278190080
-1.028278 1.617823 -11.231534 4278190080
-0.21234199 1.25282 -8.6975451 4278190080
0.49382699 2.9135799 -20.227161 4278190080
1.2958961 2.038877 -14.154644 4278190080
1.62735 1.613675 -11.202735 4278190080
3.921288 3.37746 -23.447586 4278190080
3.9444439 3.2777779 -22.755556 4278190080
5.9034481 3.255172 -22.598621 4278190080
7.1001759 1.6590509 -11.517751 4278190080
-1.105832 1.3477319 -9.436429 4278190080
-1.354419 1.741395 -12.192744 4278190080
-0.960549 1.605489 -11.241166 4278190080
-0.30112901 1.174404 -8.2228355 4278190080
0.469136 2.8888891 -20.227161 4278190080
1.261562 1.419257 -9.9372253 4278190080
1.3846149 1.5 -10.502564 4278190080
4.756206 1.1915981 -8.3432207 4278190080
-6.489676 2.737463 -19.332153 4278190080
-2.3102441 1.810732 -12.787513 4278190080
-3.131824 2.4713709 -17.452997 4278190080
-0.35828501 1.1874599 -8.3859243 4278190080
-0.30732301 2.228091 -15.734934 4278190080
-0.28846201 2.2307689 -15.753846 4278190080
-0.142857 2.071429 -14.628572 4278190080
-0.142857 2.071429 -14.628572 4278190080
3.7380531 3.284956 -23.198584 4278190080
8.6449785 2.6251769 -18.539181 4278190080
-6.489676 2.7138641 -19.332153 4278190080
-6.489676 2.7138641 -19.332153 4278190080
-2.180547 1.071637 -7.63378 4278190080
-2.1500871 1.07039 -7.624898 4278190080
-2.0774491 1.0478359 -7.4642372 4278190080
-1.352941 1.6911761 -12.047059 4278190080
-0.302077 1.157961 -8.2487097 4278190080
-0.20454501 1.306818 -9.3090906 4278190080
-0.107023 2.0512819 -14.612264 4278190080
0.70243901 2.9918699 -21.312521 4278190080
3.9523001 3.134583 -22.329132 4278190080
3.3674829 2.0489981 -14.595991 4278190080
9.0074072 2.7259259 -19.418074 4278190080
8.6449785 2.602546 -18.539181 4278190080
7.7156401 2.180095 -15.529858 4278190080
4.976378 1.2073489 -8.6005249 4278190080
-3.6178961 1.1027811 -7.9245472 4278190080
-2.376699 1.770874 -12.725437 4278190080
-0.333538 1.118332 -8.0362968 4278190080
-0.23203699 1.202373 -8.6402111 4278190080
-0.200627 1.143574 -8.21768 4278190080
0.248237 2.572638 -18.486883 4278190080
0.65359497 2.980392 -21.416994 4278190080
1.146341 2.780488 -19.980488 4278190080
1.149701 1.820359 -13.081038 4278190080
1.853282 1.760618 -12.651737 4278190080
3.224535 1.9978091 -14.356189 4278190080
9.0074072 2.7022221 -19.418074 4278190080
4.7592359 1.161783 -8.3485355 4278190080
4.5306358 1.085068 -7.7972641 4278190080
-3.59322 1.094431 -7.9341412 4278190080
-5.1102042 1.844898 -13.374694 4278190080
-0.96019602 1.107165 -8.0264549 4278190080
-0.364757 1.113986 -8.0759087 4278190080
-0.233354 1.146481 -8.3114777 4278190080
1.119675 1.833671 -13.293306 4278190080
1.119675 1.833671 -13.293306 4278190080
1.330296 2.059226 -14.928474 4278190080
1.330296 2.059226 -14.928474 4278190080
1.860113 1.708885 -12.388658 4278190080
3.9207211 3.257658 -23.616577 4278190080
3.375 2.0178571 -14.628572 4278190080
3.375 2.0178571 -14.628572 4278190080
9.5181236 3.855011 -27.947123 4278190080
4.526875 1.067927 -7.7419968 4278190080
4.5999999 1.07619 -7.8019052 4278190080
-1.009804 1.098039 -8.031373 4278190080
1.288923 1.3880709 -10.15275 4278190080
3.985348 3.2820511 -24.005861 4278190080
4.284153 3.264117 -23.874681 4278190080
3.0241759 1.969231 -14.403517 4278190080
8.179657 2.367239 -17.314663 4278190080
5.9763312 1.325444 -9.6946735 4278190080
-4.1648588 1.284165 -9.4773684 4278190080
-4.1544781 1.459326 -10.77009 4278190080
-4.1544781 1.459326 -10.77009 4278190080
-4.066608 1.556529 -11.487468 4278190080
-8.33638 3.2468009 -23.961975 4278190080
-2.036036 1 -7.3801799 4278190080
1.2789969 1.39185 -10.2721 4278190080
9.773756 4.0180998 -29.654299 4278190080
9.3471937 3.6923079 -27.249897 4278190080
3.853061 1.035568 -7.642683 4278190080
4.6282601 1.077016 -7.948575 4278190080
5.3473959 1.170732 -8.6402111 4278190080
-3.61571 1.063444 -7.9197578 4278190080
-2.198473 1.03347 -7.6965361 4278190080
-1.981982 0.990991 -7.3801799 4278190080
-2.404624 1.695568 -12.62736 4278190080
-0.228964 1.007441 -7.5026898 4278190080
0.404762 2.6190481 -19.504763 4278190080
1.853107 1.657251 -12.341996 4278190080
10.676525 3.2532351 -24.227726 4278190080
4.567359 1.04451 -7.7787542 4278190080
-4.0735192 1.187202 -8.9225321 4278190080
-4.0848732 1.1937031 -8.9713898 4278190080
-3.438549 1.1712559 -8.8026867 4278190080
-4.1642041 1.431856 -10.761248 4278190080
-6.5320058 2.4807971 -18.644667 4278190080
-6.5092459 2.4807971 -18.644667 4278190080
-2.0328979 0.989223 -7.4345999 4278190080
-2.3961351 1.685024 -12.663961 4278190080
-2.3783779 1.683398 -12.651737 4278190080
-2.338798 2.382514 -17.906012 4278190080
-2.307483 2.3727889 -17.832926 4278190080
-0.96209198 1.139869 -8.5667973 4278190080
-0.74185503 2.1854639 -16.425062 4278190080
0.14695799 2.002296 -15.04845 4278190080
1.8307689 1.676923 -12.603077 4278190080
3.931741 2.976109 -22.367235 4278190080
11.140039 3.439842 -25.852467 4278190080
10.686457 3.235621 -24.317625 4278190080
8.4178343 2.2216561 -16.697071 4278190080
4.5950208 1.058895 -7.9582272 4278190080
4.5849609 1.032564 -7.7603321 4278190080
-4.1343379 1.184373 -8.9836874 4278190080
-4.0953031 1.1763099 -8.9225321 4278190080
-4.4811749 1.586777 -12.035996 4278190080
-2.2857139 2.3510201 -17.832926 4278190080
-1.009198 1.135348 -8.6118269 4278190080
-0.700876 2.162703 -16.404507 4278190080
-0.211494 0.99310303 -7.5328741 4278190080
1.070295 1.9591841 -14.860771 4278190080
1.853107 1.6271189 -12.341996 4278190080
4.5714288 1.041591 -7.9006629 4278190080
4.6531591 1.029797 -7.811204 4278190080
6.0074348 1.284758 -9.7451305 4278190080
-3.9416311 1.469528 -11.250815 4278190080
-2.4582779 1.133775 -8.6802654 4278190080
-0.17788801 1.057443 -8.0958614 4278190080
2.333333 2.229167 -17.066668 4278190080
2.354167 2.229167 -17.066668 4278190080
6.0173912 3.7217391 -28.493914 4278190080
3.055016 1.846818 -14.139375 4278190080
5.2848492 2.5939391 -19.859394 4278190080
9.3139296 3.559252 -27.249897 4278190080
3.752171 0.99131399 -7.5895772 4278190080
3.8002319 0.99419302 -7.6116152 4278190080
-3.441442 0.95495498 -7.3801799 4278190080
-4.6763291 1.365539 -10.553301 4278190080
-4.6053848 1.5747451 -12.170102 4278190080
-6.307054 2.345782 -18.128908 4278190080
-2.4403181 1.124668 -8.6917772 4278190080
1.152 1.9382859 -14.979657 4278190080
3.5657139 3.2304759 -24.966095 4278190080
3.59619 3.2304759 -24.966095 4278190080
3.8978391 3.3320241 -25.750885 4278190080
3.037756 1.829558 -14.139375 4278190080
5.2848492 2.5696969 -19.859394 4278190080
5.9969649 1.286798 -9.9447651 4278190080
5.9969649 1.286798 -9.9447651 4278190080
-4.4186049 1.22093 -9.5255814 4278190080
-4.2906981 1.22093 -9.5255814 4278190080
-4.247272 1.221818 -9.5325089 4278190080
-3.4347241 1.1305521 -8.8204575 4278190080
-4.4606948 1.5356489 -11.980988 4278190080
-2.4042549 1.117021 -8.7148933 4278190080
-2.398401 1.119254 -8.7323122 4278190080
-0.98108298 1.09589 -8.5500326 4278190080
-0.93872201 1.095176 -8.5444593 4278190080
-0.89748502 1.083172 -8.4508057 4278190080
-0.87386203 1.092328 -8.5222368 4278190080
3.956989 3.0107529 -23.489607 4278190080
6.184269 3.775281 -29.454382 4278190080
3.0169489 1.7796611 -13.884746 4278190080
3.6831911 0.95726502 -7.4684901 4278190080
8.3548794 2.129277 -16.612421 4278190080
6.022676 1.269841 -9.9071808 4278190080
6.0505199 1.248143 -9.7378902 4278190080
-4.254467 1.1894211 -9.3689775 4278190080
-4.247272 1.210182 -9.5325089 4278190080
-6.2947631 2.0267971 -15.964921 4278190080
-4.4835172 1.52381 -12.002931 4278190080
-0.75999999 2.0799999 -16.384001 4278190080
-0.74000001 2.0799999 -16.384001 4278190080
-0.43735799 1.263478 -9.9523163 4278190080
0.36281201 1.886621 -14.860771 4278190080
2.298466 2.320781 -18.280615 4278190080
4.0154438 3.2123549 -25.303474 4278190080
3.9523001 2.834753 -22.329132 4278190080
3.031579 1.751579 -13.797052 4278190080
3.676791 0.95358199 -7.5112901 4278190080
8.2394018 2.0748129 -16.343142 4278190080
8.2593517 2.0748129 -16.343142 4278190080
6.410553 1.371805 -10.805606 4278190080
6.421052 1.368421 -10.778948 4278190080
-4.4542131 1.2073261 -9.6023455 4278190080
-6.3569679 2.0146699 -16.023472 4278190080
-6.204082 2.242177 -17.832926 4278190080
-2.4713709 1.097204 -8.7264986 4278190080
-0.77999997 2.0599999 -16.384001 4278190080
-0.188235 1.0204329 -8.1159134 4278190080
0.34467101 1.868481 -14.860771 4278190080
2.320781 2.298466 -18.280615 4278190080
12.345898 3.6541021 -29.062529 4278190080
7.0372739 1.755059 -13.958679 4278190080
-3.475862 2.8137929 -22.598621 4278190080
-0.97472501 1.05768 -8.4946213 4278190080
-0.893453 1.047497 -8.412837 4278190080
-0.43735799 1.23918 -9.9523163 4278190080
0.93645501 1.364548 -10.959197 4278190080
3.8449609 3.162791 -25.40155 4278190080
-4.295764 1.160086 -9.4093323 4278190080
-4.3139529 1.174419 -9.5255814 4278190080
-3.475862 2.786207 -22.598621 4278190080
1.149701 1.935329 -15.697246 4278190080
0.92000002 1.3466671 -10.922667 4278190080
3.8139529 3.131783 -25.40155 4278190080
3.677922 2.098701 -17.022339 4278190080
6.264966 1.585868 -12.862807 4278190080
6.2423258 1.305331 -10.587399 4278190080
-8.5887442 3.463203 -28.370564 4278190080
3.6987009 2.0779221 -17.022339 4278190080
6.0891428 1.828571 -14.979657 4278190080
6.9808922 1.698514 -13.914226 4278190080
6.7218928 1.352494 -11.079628 4278190080
5.9438701 1.181684 -9.6803551 4278190080
-3.4253271 0.89948899 -7.4430442 4278190080
-4.965517 1.332212 -11.023718 4278190080
-4.6829271 1.287805 -10.65626 4278190080
-5.3898311 1.677966 -13.884746 4278190080
-1.5550489 1.202734 -9.9523163 4278190080
-1.5550489 1.202734 -9.9523163 4278190080
-2.310894 1.9388 -16.043085 4278190080
-0.97789299 1.029909 -8.5222368 4278190080
-0.97789299 1.029909 -8.5222368 4278190080
3.9526229 2.680203 -22.178003 4278190080
6.1369858 1.808219 -14.962557 4278190080
10.748092 3.0229011 -25.013741 4278190080
10.778625 3.0229011 -25.013741 4278190080
6.701138 1.638056 -13.554499 4278190080
6.724638 1.639752 -13.56853 4278190080
6.4370861 1.311258 -10.850331 4278190080
5.8818378 1.1553611 -9.5603209 4278190080
5.961709 1.1664211 -9.6518412 4278190080
-4.9966331 1.319865 -11.032997 4278190080
-4.7127752 1.275834 -10.664931 4278190080
-5.4468079 1.668085 -13.94383 4278190080
-5.2285419 1.62151 -13.554499 4278190080
-0.29473701 1.031579 -8.6231585 4278190080
-0.28184301 2.124661 -17.760433 4278190080
3.806061 2.3757579 -19.859394 4278190080
8.518424 1.992376 -16.654638 4278190080
8.5 1.96 -16.384001 4278190080
6.6869712 1.326565 -11.089002 4278190080
-3.9283891 1.323103 -11.174084 4278190080
-1.590288 1.177542 -9.9447651 4278190080
-2.3276279 1.89731 -16.023472 4278190080
-0.316623 1.023747 -8.6459103 4278190080
3.9626169 2.4174449 -20.416199 4278190080
7.1028042 1.450467 -12.24972 4278190080
7.13271 1.450467 -12.24972 4278190080
-4.0277781 1.333333 -11.377778 4278190080
-3.962296 1.316195 -11.231534 4278190080
-3.9214351 1.311699 -11.193169 4278190080
-2.346154 1.846154 -15.753846 4278190080
-0.480519 1.246753 -10.638961 4278190080
2.3083451 2.17256 -18.539181 4278190080
3.9626169 2.3925231 -20.416199 4278190080
6.9808922 1.630573 -13.914226 4278190080
8.6424866 1.989637 -16.978239 4278190080
8.4705887 1.922403 -16.404507 4278190080
7.1626172 1.435514 -12.24972 4278190080
-6.52142 1.860465 -16.043085 4278190080
-5.9444451 1.759259 -15.170371 4278190080
-2.3489771 1.8291219 -15.772804 4278190080
0.374165 1.69265 -14.595991 4278190080
1.1346149 1.826923 -15.753846 4278190080
0.79139799 1.089606 -9.3958426 4278190080
0.82521498 1.088825 -9.3891125 4278190080
4.227006 2.97456 -25.650099 4278190080
4.258317 2.97456 -25.650099 4278190080
4.0131149 2.4918029 -21.487213 4278190080
2.5645161 1.532258 -13.212903 4278190080
10.26087 2.065217 -17.808697 4278190080
0.356745 1.6767 -14.612264 4278190080
3.92555 2.5448389 -22.178003 4278190080
2.532258 1.516129 -13.212903 4278190080
6.682353 1.2638659 -11.014454 4278190080
-3.9301131 1.529291 -13.470915 4278190080
-2.3258791 2.376997 -20.938019 4278190080
5.2897959 2.0244901 -17.832926 4278190080
7.4494882 2.1786239 -19.19063 4278190080
6.6502061 1.530864 -13.484774 4278190080
7.3859649 1.631579 -14.37193 4278190080
6.6531992 1.252525 -11.032997 4278190080
-6.8422432 1.919166 -17.088919 4278190080
-2.513514 0.82882899 -7.3801799 4278190080
-3.872297 1.515963 -13.498661 4278190080
-8 3.488152 -31.059715 4278190080
-0.53006101 1.8061351 -16.082455 4278190080
0.75471699 1.068215 -9.5117559 4278190080
0.78840601 1.066667 -9.4979715 4278190080
6.3758392 1.234899 -10.995974 4278190080
-6.8900518 1.905759 -17.156021 4278190080
-2.6454549 0.82727301 -7.4472728 4278190080
-1.7729141 1.991792 -17.930506 4278190080
6.5558348 1.222502 -11.005206 4278190080
6.5914068 1.226622 -11.042292 4278190080
13.583893 2.4429531 -21.991947 4278190080
13.610738 2.4429531 -21.991947 4278190080
-5.2623172 1.917443 -17.452997 4278190080
-5.2623172 1.917443 -17.452997 4278190080
-3.9251561 1.496881 -13.624949 4278190080
-1.593172 2.0483639 -18.644667 4278190080
-0.37673101 1.99446 -18.154016 4278190080
7.801857 2.2291019 -20.289783 4278190080
6.9925928 1.52381 -13.870053 4278190080
12.774194 2.3225811 -21.140646 4278190080
12.825807 2.3225811 -21.140646 4278190080
13.675675 2.4324319 -22.140541 4278190080
-3.225225 0.80180198 -7.3801799 4278190080
-2.625869 0.990264 -9.1148825 4278190080
-0.58895701 1.747239 -16.082455 4278190080
-0.58895701 1.747239 -16.082455 4278190080
-0.47696501 1.929539 -17.760433 4278190080
-0.35457101 1.972299 -18.154016 4278190080
8.4803314 2.94824 -27.13706 4278190080
8.5071573 2.912066 -26.80409 4278190080
6.3411369 1.190635 -10.959197 4278190080
-3.3603599 0.79279298 -7.3801799 4278190080
-3.3063059 0.79279298 -7.3801799 4278190080
-3.3140919 0.79683101 -7.4177699 4278190080
-1.5637389 1.994334 -18.565439 4278190080
-0.433604 1.907859 -17.760433 4278190080
4.1538458 3.3846149 -31.507692 4278190080
6.6915112 1.457557 -13.56853 4278190080
-8.3999996 2.485714 -23.405714 4278190080
-2.5821331 0.80230498 -7.5545821 4278190080
-4.563446 1.620489 -15.258673 4278190080
-4.9669209 1.770992 -16.675827 4278190080
-2.6240439 0.96733803 -9.1085482 4278190080
-1.9400001 1.74 -16.384001 4278190080
-1.787466 1.896458 -17.857222 4278190080
-0.45528501 1.886179 -17.760433 4278190080
3.9189191 2.351351 -22.140541 4278190080
4.8190999 1.278237 -12.035996 4278190080
4.8727269 1.265455 -11.915637 4278190080
-11.29211 2.933902 -27.947123 4278190080
-2.592592 0.796296 -7.585186 4278190080
-1.847042 1.98557 -18.91371 4278190080
-1.727273 1.954545 -18.618181 4278190080
7.0310831 1.474812 -14.048446 4278190080
7.057816 1.473233 -14.033405 4278190080
6.3650131 1.157275 -11.023718 4278190080
-2.60252 0.77892298 -7.506988 4278190080
-2.065645 1.487965 -14.340482 4278190080
-1.993385 1.499449 -14.451158 4278190080
-2.047205 1.689441 -16.282236 4278190080
-1.887076 1.706399 -16.445671 4278190080
-1.795455 1.931818 -18.618181 4278190080
-1.704545 1.931818 -18.618181 4278190080
-1.5637389 1.9263459 -18.565439 4278190080
-1.5637389 1.9263459 -18.565439 4278190080
0 1.31528 -12.676209 4278190080
0 1.31528 -12.676209 4278190080
5.333333 2.0512819 -19.769533 4278190080
-3.3650429 0.77020103 -7.5112901 4278190080
-4.563446 1.56461 -15.258673 4278190080
-2.649895 0.93920302 -9.1594687 4278190080
-7.8888888 3.1111109 -30.340742 4278190080
0.061657 1.294798 -12.62736 4278190080
4.0827579 2.317241 -22.598621 4278190080
4.1103449 2.317241 -22.598621 4278190080
4.8347502 1.269122 -12.37696 4278190080
4.8104582 1.254902 -12.238282 4278190080
7.0074229 1.425239 -13.89947 4278190080
7.0095239 1.422222 -13.870053 4278190080
-12.641584 2.629703 -25.954851 4278190080
-12.663968 2.6882589 -26.532793 4278190080
-5.5919189 2.6828279 -26.479193 4278190080
-2.0999999 1.66 -16.384001 4278190080
-1.898697 1.921852 -18.968452 4278190080
0.063366003 1.314852 -12.977426 4278190080
8.5619831 2.7438021 -27.080992 4278190080
4.8256359 1.251649 -12.353629 4278190080
7.0210972 1.400844 -13.82616 4278190080
8.3623009 1.625459 -16.043085 4278190080
7.595789 1.397895 -13.797052 4278190080
-12.723658 2.60835 -26.058052 4278190080
-12.780684 2.6398389 -26.372637 4278190080
-12.663968 2.65587 -26.532793 4278190080
-3.346705 0.75186199 -7.5112901 4278190080
-2.628109 0.75882 -7.5807981 4278190080
-7.9259262 3.0370369 -30.340742 4278190080
-2.063211 1.6586601 -16.570417 4278190080
-1.0966949 1.605875 -16.043085 4278190080
0.047525 1.29901 -12.977426 4278190080
2.21398 1.871612 -18.697861 4278190080
5.6103902 2.1298699 -21.277922 4278190080
