# .PCD v0.7 - Point Cloud Data file format
VERSION 0.7
FIELDS x y z rgb
SIZE 4 4 4 4
TYPE F F F U
COUNT 1 1 1 1
WIDTH 1145
HEIGHT 1
VIEWPOINT 0 0 0 1 0 0 0
POINTS 1145
DATA ascii
15.04 -1.774545 -24.715635 4278190080
-3.4978349 -0.72727299 -9.8077917 4278190080
-0.96163702 -0.42966801 -5.794373 4278190080
1.241977 -0.437121 -5.8948832 4278190080
6.46875 -1.96875 -26.549999 4278190080
6.96875 -1.96875 -26.549999 4278190080
6.551877 -1.112583 -15.003973 4278190080
15.84375 -1.96875 -26.549999 4278190080
14.372414 -1.737931 -23.437241 4278190080
-3.4480801 -0.73968703 -9.6682787 4278190080
0.41320899 -0.44030499 -5.7551231 4278190080
0.83508801 -0.45614001 -5.9621048 4278190080
1.0698071 -0.43734199 -5.7164001 4278190080
7.15625 -2.03125 -26.549999 4278190080
6.140625 -1.015625 -13.275 4278190080
5.897059 -0.95588201 -12.494118 4278190080
5.9047618 -0.95238101 -12.448351 4278190080
14.671378 -1.837456 -24.01696 4278190080
14.372414 -1.793103 -23.437241 4278190080
-3.3091919 -0.74651802 -9.4662952 4278190080
-3.255944 -0.74965 -9.5060139 4278190080
0.141533 -0.45155901 -5.7260318 4278190080
0.68416601 -0.45385301 -5.7551231 4278190080
0.93313497 -0.39821699 -5.0496278 4278190080
7.03125 -2.09375 -26.549999 4278190080
6.255765 -1.12369 -14.249056 4278190080
6.1003861 -1.034749 -13.121235 4278190080
8.3682861 -1.370844 -17.38312 4278190080
15.202952 -1.97786 -25.080442 4278190080
-2.8571429 -0.64636999 -7.9587822 4278190080
-1.894309 -0.56097603 -6.9073172 4278190080
-0.924658 -0.47260299 -5.8191781 4278190080
-0.323699 -0.45582199 -5.6125512 4278190080
0.430401 -0.47139201 -5.8042698 4278190080
6.59375 -2.15625 -26.549999 4278190080
7.8243899 -1.346341 -16.57756 4278190080
-3.2682259 -0.78129297 -9.3491058 4278190080
-1.375661 -0.50088203 -5.99365 4278190080
-0.675192 -0.48422799 -5.794373 4278190080
-0.40802699 -0.47491601 -5.6829429 4278190080
1.425812 -0.49868301 -5.96734 4278190080
5.3882351 -1.670588 -19.990587 4278190080
6.0476189 -1.126984 -13.485714 4278190080
0.40272999 -0.498294 -5.7993169 4278190080
0.85530502 -0.46945301 -5.463665 4278190080
1.420822 -0.51093602 -5.946456 4278190080
5.984127 -1.15873 -13.485714 4278190080
8.0786238 -1.434889 -16.699755 4278190080
8.0191383 -1.3971291 -16.260286 4278190080
15.71875 -2.28125 -26.549999 4278190080
-1.85567 -0.61855698 -7.00701 4278190080
-0.61486501 -0.50675702 -5.740541 4278190080
0.98452502 -0.44215199 -5.0086961 4278190080
1.314783 -0.52173901 -5.9102612 4278190080
6.53125 -2.34375 -26.549999 4278190080
6.65625 -2.34375 -26.549999 4278190080
5.3882351 -1.764706 -19.990587 4278190080
-0.51764703 -0.51764703 -5.711596 4278190080
0.813223 -0.50909102 -5.6171899 4278190080
8.5203257 -1.669377 -18.419512 4278190080
8.5636854 -1.669377 -18.419512 4278190080
8.3141375 -1.612565 -17.792669 4278190080
15.90625 -2.40625 -26.549999 4278190080
-3.0852499 -0.85521001 -9.1972933 4278190080
-1.347432 -0.477341 -5.133534 4278190080
-1.119313 -0.54248899 -5.8341632 4278190080
-0.62837797 -0.53378397 -5.740541 4278190080
0.94555902 -0.45272201 -4.8687682 4278190080
1.21626 -0.51382101 -5.5258541 4278190080
-1.3842061 -0.57497799 -6.0308781 4278190080
0.52115101 -0.54822302 -5.7502542 4278190080
0.67175603 -0.54961801 -5.7648849 4278190080
15.65625 -2.53125 -26.549999 4278190080
15.71875 -2.53125 -26.549999 4278190080
15.90625 -2.53125 -26.549999 4278190080
1.29274 -0.518345 -5.3058548 4278190080
6.65625 -2.59375 -26.549999 4278190080
9.84375 -2.59375 -26.549999 4278190080
2.496783 -0.427284 -4.373745 4278190080
-1.394636 -0.43422699 -4.34023 4278190080
-0.64791101 -0.57971001 -5.794373 4278190080
-0.16181201 -0.55016202 -5.4990292 4278190080
0.934524 -0.505952 -5.0571432 4278190080
1.327601 -0.58469498 -5.8441958 4278190080
1.35182 -0.58925498 -5.8897738 4278190080
8.9647055 -2 -19.990587 4278190080
8.4643803 -1.7941951 -17.933508 4278190080
7.8285708 -1.619048 -16.182858 4278190080
-1.481481 -0.54846299 -5.3560281 4278190080
-0.661102 -0.58096802 -5.6734562 4278190080
5.4047618 -2.071429 -20.228571 4278190080
5.4523811 -2.071429 -20.228571 4278190080
8.9176474 -2.0470591 -19.990587 4278190080
7.646512 -1.618605 -15.806511 4278190080
15.78125 -2.71875 -26.549999 4278190080
16.09375 -2.71875 -26.549999 4278190080
-1.407217 -0.458763 -4.3793812 4278190080
-0.885077 -0.61063498 -5.8291588 4278190080
-0.42483699 -0.58169901 -5.5529408 4278190080
0.85472703 -0.54727101 -5.2242889 4278190080
8.456522 -1.934783 -18.469564 4278190080
10.632912 -1.802532 -17.207088 4278190080
-0.49702099 -0.61957401 -5.7845111 4278190080
-0.43441901 -0.60818702 -5.678195 4278190080
0.169205 -0.61590499 -5.7502542 4278190080
0.45296201 -0.63414598 -5.920557 4278190080
0.49868301 -0.639157 -5.96734 4278190080
1.079872 -0.58147001 -5.4287539 4278190080
1.337726 -0.59967101 -5.5986819 4278190080
5.16959 -2.128655 -19.873684 4278190080
2.4910491 -0.465473 -4.3457799 4278190080
15.96875 -2.84375 -26.549999 4278190080
-2.8120649 -0.86310899 -7.8849192 4278190080
-2 -0.66666698 -6.090322 4278190080
-1.142857 -0.64415598 -5.884675 4278190080
-0.39170101 -0.61742699 -5.6404982 4278190080
1.125 -0.77499998 -7.0799999 4278190080
7.2743359 -1.646018 -15.037168 4278190080
10.435643 -1.841584 -16.823761 4278190080
-2.8055561 -0.87963003 -7.8666658 4278190080
-1.079038 -0.65292102 -5.8391752 4278190080
5.8770232 -2.459547 -21.996117 4278190080
5.8983049 -1.288136 -11.52 4278190080
-1.927959 -0.66552299 -5.8291588 4278190080
-1.865073 -0.66268098 -5.8042698 4278190080
-0.80814898 -0.65874398 -5.7697792 4278190080
1.11017 -0.822034 -7.1999998 4278190080
0.881459 -0.58966601 -5.164742 4278190080
7.09375 -3.03125 -26.549999 4278190080
9.84375 -3.03125 -26.549999 4278190080
9.90625 -3.03125 -26.549999 4278190080
5.8666668 -1.326496 -11.618462 4278190080
5.8440681 -1.315254 -11.52 4278190080
5.778512 -1.282645 -11.23438 4278190080
5.778512 -1.282645 -11.23438 4278190080
6.3855858 -1.398198 -12.246486 4278190080
10.384236 -1.91133 -16.740887 4278190080
-2.6297579 -0.913495 -7.8394461 4278190080
-0.97527701 -0.675192 -5.794373 4278190080
-0.85738403 -0.66835397 -5.7356958 4278190080
-0.70647597 -0.66610599 -5.7164001 4278190080
8.2056551 -2.03599 -17.472492 4278190080
5.7086091 -1.311258 -11.25298 4278190080
-2.743649 -0.933025 -7.8484988 4278190080
-1.441385 -0.63572001 -5.3476 4278190080
-1.374545 -0.73454499 -6.1789088 4278190080
-1.241135 -0.71631199 -6.0255318 4278190080
16.15625 -3.15625 -26.549999 4278190080
-1.336908 -0.73637199 -6.0739951 4278190080
-1.279152 -0.72791499 -6.00424 4278190080
0.66381502 -0.70487601 -5.8141999 4278190080
0.81188101 -0.67986798 -5.6079211 4278190080
-1.317899 -0.74799597 -6.0523601 4278190080
-1.116118 -0.72790301 -5.8897738 4278190080
6.84375 -3.28125 -26.549999 4278190080
-2.8045981 -0.983908 -7.8124142 4278190080
-1.415663 -0.64457798 -5.118072 4278190080
-0.84974098 -0.73920602 -5.8694301 4278190080
-0.77663201 -0.73539501 -5.8391752 4278190080
-0.17690399 -0.701065 -5.5665851 4278190080
-0.153975 -0.71631801 -5.6876979 4278190080
-1.329685 -0.596443 -4.6489739 4278190080
0.79135501 -0.72485501 -5.6498752 4278190080
6.726882 -1.8752691 -14.616774 4278190080
4.0918369 -1.112245 -8.6693878 4278190080
5.9148941 -1.5460989 -12.051064 4278190080
5.9274611 -1.506045 -11.73886 4278190080
-0.80829 -0.76683903 -5.8694301 4278190080
0.58783799 -0.75 -5.740541 4278190080
7.21875 -3.46875 -26.549999 4278190080
9.65625 -3.46875 -26.549999 4278190080
5.949821 -1.591398 -12.180645 4278190080
5.9465241 -1.582888 -12.115508 4278190080
2.4771321 -0.54882598 -4.2007418 4278190080
10.159036 -2.1397591 -16.377831 4278190080
-0.63698602 -0.77397299 -5.8191781 4278190080
-0.126561 -0.75270599 -5.6592841 4278190080
7.03125 -3.53125 -26.549999 4278190080
9.59375 -3.53125 -26.549999 4278190080
9.65625 -3.53125 -26.549999 4278190080
10.659846 -2.312021 -17.38312 4278190080
-0.101095 -0.77506298 -5.7260318 4278190080
-0.046627998 -0.76602799 -5.6592841 4278190080
1.127789 -0.93306297 -6.8933058 4278190080
6.34375 -3.59375 -26.549999 4278190080
6.71875 -3.59375 -26.549999 4278190080
9.65625 -3.59375 -26.549999 4278190080
9.96875 -3.59375 -26.549999 4278190080
6.0743361 -1.628319 -12.029735 4278190080
10.148681 -2.2062349 -16.29928 4278190080
-1.3736759 -0.708018 -5.1413012 4278190080
0.28810701 -0.78391999 -5.692462 4278190080
1.0605429 -0.97703499 -7.09478 4278190080
6.65625 -3.65625 -26.549999 4278190080
7.28125 -3.65625 -26.549999 4278190080
9.90625 -3.65625 -26.549999 4278190080
5.9465241 -1.668449 -12.115508 4278190080
6.0320849 -1.668449 -12.115508 4278190080
5.5603709 -1.448916 -10.521362 4278190080
-0.90189302 -0.81927699 -5.849226 4278190080
0.563667 -0.80814898 -5.7697792 4278190080
4.181818 -1.272727 -9.0866308 4278190080
5.5902138 -1.455657 -10.39266 4278190080
2.4933081 -0.60675597 -4.3319311 4278190080
-1.4049079 -0.74233103 -5.2122698 4278190080
5.5614309 -1.505443 -10.570451 4278190080
10.446115 -2.426065 -17.034586 4278190080
-0.73710901 -0.83178401 -5.7453928 4278190080
1.095335 -0.99797201 -6.8933058 4278190080
4.0601501 -1.233083 -8.517293 4278190080
10.701031 -2.536083 -17.517525 4278190080
-0.61486501 -0.84459502 -5.740541 4278190080
0.63427103 -0.85251498 -5.794373 4278190080
6.65625 -3.90625 -26.549999 4278190080
6.84375 -3.90625 -26.549999 4278190080
4.2245989 -1.336898 -9.0866308 4278190080
5.6951418 -1.675042 -11.384924 4278190080
5.525641 -1.602564 -10.892307 4278190080
-2.78458 -1.151927 -7.7061219 4278190080
-1.383178 -0.94953299 -6.352149 4278190080
-1.383178 -0.94953299 -6.352149 4278190080
0.046783999 -0.84878898 -5.678195 4278190080
0.44853601 -0.850209 -5.6876979 4278190080
0.81228697 -0.86689401 -5.7993169 4278190080
6.59375 -3.96875 -26.549999 4278190080
9.90625 -3.96875 -26.549999 4278190080
5.6778522 -1.704698 -11.404027 4278190080
5.6105609 -1.676568 -11.215841 4278190080
5.5247211 -1.620415 -10.840191 4278190080
-1.0921741 -0.89739102 -5.9102612 4278190080
-0.84974098 -0.89119202 -5.8694301 4278190080
-0.63758397 -0.86577201 -5.702013 4278190080
6.28125 -4.03125 -26.549999 4278190080
6.78125 -4.03125 -26.549999 4278190080
-1.321033 -0.96679002 -6.2701111 4278190080
-1.007712 -0.89802903 -5.8241639 4278190080
0.82782602 -0.911304 -5.9102612 4278190080
1.091882 -0.93488002 -6.063158 4278190080
6.84375 -4.09375 -26.549999 4278190080
7.09375 -4.09375 -26.549999 4278190080
7.40625 -4.09375 -26.549999 4278190080
3.4508281 -1.020448 -6.6181111 4278190080
15.261992 -3.8671589 -25.080442 4278190080
10.038095 -2.4952381 -16.182858 4278190080
-0.73648602 -0.89864898 -5.740541 4278190080
3.3680079 -1.044161 -6.6700692 4278190080
0.046900999 -0.90452302 -5.692462 4278190080
5.96875 -4.21875 -26.549999 4278190080
6.40625 -4.21875 -26.549999 4278190080
7.53125 -4.21875 -26.549999 4278190080
8.78125 -4.21875 -26.549999 4278190080
8.84375 -4.21875 -26.549999 4278190080
4.2600279 -1.493776 -9.4008293 4278190080
4.3324099 -1.495845 -9.4138498 4278190080
15.96875 -4.21875 -26.549999 4278190080
0.247492 -0.91638798 -5.6829429 4278190080
0.80560398 -0.95972002 -5.951663 4278190080
6.46875 -4.28125 -26.549999 4278190080
9.84375 -4.28125 -26.549999 4278190080
4.2510462 -1.528591 -9.4794979 4278190080
-2.5 -1.263636 -7.7236362 4278190080
-2.47348 -1.4385509 -8.7927551 4278190080
-1.06338 -0.97887301 -5.983099 4278190080
0.167926 -0.93366897 -5.7068009 4278190080
8.78125 -4.34375 -26.549999 4278190080
9.84375 -4.34375 -26.549999 4278190080
3.6891191 -1.1523319 -7.0433159 4278190080
5.71875 -4.40625 -26.549999 4278190080
6.65625 -4.40625 -26.549999 4278190080
10.052257 -2.6793351 -16.144417 4278190080
-2.5943501 -1.292655 -7.6799998 4278190080
-2.5220339 -1.292655 -7.6799998 4278190080
-1.263927 -1.044749 -6.2071228 4278190080
-1.238009 -1.0352941 -6.15095 4278190080
-0.98620701 -0.98620701 -5.8593102 4278190080
0.033500999 -0.95812398 -5.692462 4278190080
0.83871001 -1.02509 -6.090322 4278190080
6.34375 -4.46875 -26.549999 4278190080
2.5555561 -0.75661403 -4.4952378 4278190080
15.202952 -4.2214022 -25.080442 4278190080
0.612279 -0.97561002 -5.7164001 4278190080
1.062331 -1.047877 -6.1398368 4278190080
6.09375 -4.53125 -26.549999 4278190080
6.34375 -4.53125 -26.549999 4278190080
8.90625 -4.53125 -26.549999 4278190080
10.368159 -2.885572 -16.907463 4278190080
-2.4251969 -1.5433069 -8.9196844 4278190080
-0.19594599 -0.99324298 -5.740541 4278190080
1.062271 -1.076923 -6.224175 4278190080
5.96875 -4.59375 -26.549999 4278190080
7.28125 -4.59375 -26.549999 4278190080
-2.5011289 -1.345372 -7.6713309 4278190080
-0.17064799 -1.017065 -5.7993169 4278190080
0.99470901 -1.051146 -5.99365 4278190080
1.20548 -1.0885839 -6.2071228 4278190080
1.222324 -1.0905761 -6.2184811 4278190080
5.71875 -4.65625 -26.549999 4278190080
8.71875 -4.65625 -26.549999 4278190080
4.4141288 -1.451888 -8.2786846 4278190080
15.96875 -4.65625 -26.549999 4278190080
8.78125 -4.71875 -26.549999 4278190080
10.014252 -2.869359 -16.144417 4278190080
-2.4636061 -1.370661 -7.6111979 4278190080
-2.5291719 -1.660787 -9.2222519 4278190080
-1.035714 -1.092857 -6.0685711 4278190080
-0.47412401 -1.021703 -5.6734562 4278190080
1.260829 -1.128111 -6.2643318 4278190080
7.15625 -4.78125 -26.549999 4278190080
7.28125 -4.78125 -26.549999 4278190080
4.5130758 -1.524284 -8.4642591 4278190080
16.03125 -4.78125 -26.549999 4278190080
-1.039427 -1.111111 -6.090322 4278190080
-0.07395 -1.042017 -5.711596 4278190080
1.537079 -1.393258 -7.6368542 4278190080
6.28125 -4.84375 -26.549999 4278190080
10.028436 -2.9383891 -16.106161 4278190080
0.39864901 -1.060811 -5.740541 4278190080
0.75404 -1.1274689 -6.1012559 4278190080
8.65625 -4.90625 -26.549999 4278190080
7.0686069 -2.611227 -14.130561 4278190080
10.10628 -3.0338161 -16.417391 4278190080
-0.73773301 -1.076142 -5.7502542 4278190080
-0.31464401 -1.064435 -5.6876979 4278190080
0.154752 -1.0698071 -5.7164001 4278190080
1.483146 -1.429214 -7.6368542 4278190080
6.53125 -4.96875 -26.549999 4278190080
7.03125 -4.96875 -26.549999 4278190080
8.65625 -4.96875 -26.549999 4278190080
8.71875 -4.96875 -26.549999 4278190080
9.34375 -4.96875 -26.549999 4278190080
9.40625 -4.96875 -26.549999 4278190080
7.1553779 -2.533864 -13.539442 4278190080
-2.4375 -1.4375 -7.5857139 4278190080
0.53468698 -1.089679 -5.7502542 4278190080
0.90111798 -1.107481 -5.8441958 4278190080
5.90625 -5.03125 -26.549999 4278190080
6.09375 -5.03125 -26.549999 4278190080
6.34375 -5.03125 -26.549999 4278190080
9.34375 -5.03125 -26.549999 4278190080
-2.491071 -1.455357 -7.5857139 4278190080
-2.678261 -1.889855 -9.8504343 4278190080
-2.321187 -1.759784 -9.1724691 4278190080
-0.955975 -1.171608 -6.106739 4278190080
0.66144502 -1.1349 -5.9154038 4278190080
6.34375 -5.09375 -26.549999 4278190080
2.335443 -1.031646 -5.3772149 4278190080
2.646739 -0.88586998 -4.6173911 4278190080
-2.7441339 -1.47486 -7.5941901 4278190080
-2.6784661 -1.946903 -10.024778 4278190080
-0.62837797 -1.1148649 -5.740541 4278190080
-0.55333298 -1.1 -5.664 4278190080
-0.36758599 -1.102757 -5.678195 4278190080
-0.237489 -1.119593 -5.7648849 4278190080
0.43993199 -1.116751 -5.7502542 4278190080
0.90972197 -1.145833 -5.9000001 4278190080
6.53125 -5.15625 -26.549999 4278190080
8.65625 -5.15625 -26.549999 4278190080
8.71875 -5.15625 -26.549999 4278190080
2.2793651 -1.047619 -5.3942862 4278190080
6.964509 -2.7557409 -14.189561 4278190080
-1.225688 -1.225688 -6.2355962 4278190080
-0.461153 -1.116124 -5.678195 4278190080
-0.41216201 -1.128378 -5.740541 4278190080
0.79242003 -1.150732 -5.8542628 4278190080
5.28125 -5.21875 -26.549999 4278190080
9.46875 -5.21875 -26.549999 4278190080
-0.90311098 -1.2017781 -6.0416002 4278190080
0.195122 -1.13709 -5.7164001 4278190080
5.71875 -5.28125 -26.549999 4278190080
9.46875 -5.28125 -26.549999 4278190080
2.211729 -1.029703 -5.1765418 4278190080
2.207906 -0.98975098 -4.9756951 4278190080
-2.59867 -1.5166301 -7.535255 4278190080
-2.396436 -1.523385 -7.56882 4278190080
-2.8410101 -2.0326891 -10.099257 4278190080
-2.45262 -1.5429209 -7.5772572 4278190080
-0.75063401 -1.169907 -5.7453928 4278190080
0.89211202 -1.25476 -6.1621032 4278190080
5.21875 -5.40625 -26.549999 4278190080
2.106492 -1.009482 -4.9575491 4278190080
7.5704699 -3.0961969 -15.205369 4278190080
-2.954407 -2.12766 -10.329483 4278190080
-0.547297 -1.1824321 -5.740541 4278190080
-0.48666701 -1.166667 -5.664 4278190080
-0.47422701 -1.202749 -5.8391752 4278190080
-0.360544 -1.1904759 -5.779592 4278190080
2.4743831 -2.6565471 -12.897153 4278190080
7.46875 -5.46875 -26.549999 4278190080
9.9811335 -3.301887 -16.030188 4278190080
-2.491071 -1.580357 -7.5857139 4278190080
-2.365123 -1.929155 -9.2599449 4278190080
0.71611297 -1.2071609 -5.794373 4278190080
0.76223201 -1.215451 -5.8341632 4278190080
5.84375 -5.53125 -26.549999 4278190080
1.1746989 -1.066265 -5.118072 4278190080
4.9716601 -2.8663969 -13.758704 4278190080
1.914952 -0.97119302 -4.6617279 4278190080
15.90625 -5.53125 -26.549999 4278190080
16.09375 -5.53125 -26.549999 4278190080
-2.302222 -1.5911109 -7.552 4278190080
-2.845238 -2.1309519 -10.114285 4278190080
-0.43598601 -1.238754 -5.8795848 4278190080
0.46700501 -1.211506 -5.7502542 4278190080
0.534235 -1.210482 -5.7453928 4278190080
5.40625 -5.59375 -26.549999 4278190080
1.905533 -0.96626198 -4.586235 4278190080
12.34375 -5.59375 -26.549999 4278190080
-2.6704869 -2.0744989 -9.7375355 4278190080
-0.37735799 -1.241853 -5.8291588 4278190080
-0.222222 -1.218855 -5.7212119 4278190080
0.53064698 -1.215785 -5.7068009 4278190080
0.70068002 -1.231292 -5.779592 4278190080
0.78364599 -1.23339 -5.7894378 4278190080
6.78125 -5.65625 -26.549999 4278190080
9.819026 -3.3596289 -15.769837 4278190080
-2.6959391 -1.607025 -7.4608121 4278190080
-2.4988959 -1.615894 -7.501987 4278190080
-2.4115679 -1.628476 -7.5604 4278190080
4.4000001 -4.305882 -19.990587 4278190080
4.4470592 -4.305882 -19.990587 4278190080
7.09375 -5.71875 -26.549999 4278190080
7.59375 -5.71875 -26.549999 4278190080
4.8715949 -2.848249 -13.223346 4278190080
11.28125 -5.71875 -26.549999 4278190080
11.65625 -5.71875 -26.549999 4278190080
2.561497 -0.97860998 -4.5433149 4278190080
-0.381271 -1.237458 -5.6829429 4278190080
0.791058 -1.272571 -5.8441958 4278190080
0.80898899 -1.27917 -5.8745031 4278190080
10.96875 -5.78125 -26.549999 4278190080
-2.4594891 -1.660377 -7.5436182 4278190080
-2.3300109 -1.6567 -7.5269098 4278190080
-0.49871901 -1.277541 -5.8042698 4278190080
0.69356197 -1.28412 -5.8341632 4278190080
4.8519268 -3.034483 -13.786613 4278190080
4.9738431 -3.0100601 -13.675653 4278190080
12.03125 -5.84375 -26.549999 4278190080
12.28125 -5.84375 -26.549999 4278190080
9.7592592 -3.4629631 -15.733333 4278190080
-3.2602291 -2.474632 -11.124059 4278190080
0.020184999 -1.271657 -5.7164001 4278190080
12.09375 -5.90625 -26.549999 4278190080
15.96875 -5.90625 -26.549999 4278190080
-2.352423 -1.682819 -7.4854622 4278190080
-2.2819381 -1.682819 -7.4854622 4278190080
-0.37224999 -1.292724 -5.7502542 4278190080
0.113903 -1.279732 -5.692462 4278190080
7.03125 -5.96875 -26.549999 4278190080
7.34375 -5.96875 -26.549999 4278190080
13.09375 -5.96875 -26.549999 4278190080
-3.0374999 -2.4124999 -10.62 4278190080
-2.756598 -2.2639301 -9.9659824 4278190080
-0.087467998 -1.29857 -5.7164001 4278190080
0.62944198 -1.3062609 -5.7502542 4278190080
1.187592 -1.140325 -5.019793 4278190080
7.71875 -6.03125 -26.549999 4278190080
3.0096149 -1.855769 -8.1692305 4278190080
1.644098 -0.92510498 -4.0723791 4278190080
10.84375 -6.03125 -26.549999 4278190080
11.78125 -6.03125 -26.549999 4278190080
12.59375 -6.03125 -26.549999 4278190080
14.21875 -6.03125 -26.549999 4278190080
0.71034497 -1.344828 -5.8593102 4278190080
1.1792589 -1.155556 -5.034667 4278190080
7.59375 -6.09375 -26.549999 4278190080
1.154783 -0.90434802 -3.9401741 4278190080
5.0743799 -3.22314 -14.042974 4278190080
1.609726 -0.94832802 -4.131793 4278190080
11.40625 -6.09375 -26.549999 4278190080
12.03125 -6.09375 -26.549999 4278190080
12.40625 -6.09375 -26.549999 4278190080
13.617647 -5.7352939 -24.988235 4278190080
-1.05282 -1.4109221 -6.0848699 4278190080
-0.47731099 -1.32437 -5.711596 4278190080
-0.42711899 -1.335593 -5.7600002 4278190080
0.40734601 -1.315526 -5.6734562 4278190080
0.71218699 -1.362144 -5.8745031 4278190080
11.09375 -6.15625 -26.549999 4278190080
12.15625 -6.15625 -26.549999 4278190080
13.34375 -6.15625 -26.549999 4278190080
14.21875 -6.15625 -26.549999 4278190080
9.7819023 -3.6566131 -15.769837 4278190080
-2.9679389 -2.4305339 -10.376794 4278190080
-0.536048 -1.350297 -5.7648849 4278190080
0.463476 -1.336692 -5.7068009 4278190080
12.71875 -6.21875 -26.549999 4278190080
13.59375 -6.21875 -26.549999 4278190080
-2.3596489 -1.763158 -7.452631 4278190080
-0.743056 -1.395833 -5.9000001 4278190080
-0.549088 -1.397046 -5.9051261 4278190080
0.047178 -1.354676 -5.7260318 4278190080
0.559865 -1.355818 -5.7308602 4278190080
9.40625 -6.28125 -26.549999 4278190080
9.53125 -6.28125 -26.549999 4278190080
10.970589 -5.9117651 -24.988235 4278190080
12.40625 -6.28125 -26.549999 4278190080
12.96875 -6.28125 -26.549999 4278190080
2.5871191 -1.09017 -4.6079998 4278190080
-2.304491 -1.778751 -7.444468 4278190080
-2.720695 -2.3502171 -9.8361788 4278190080
-0.98233199 -1.434629 -6.00424 4278190080
-0.42424199 -1.367003 -5.7212119 4278190080
-0.411814 -1.370464 -5.7356958 4278190080
-0.020117 -1.361274 -5.6972342 4278190080
8.71875 -6.34375 -26.549999 4278190080
3.0619681 -1.973269 -8.2585659 4278190080
11.90625 -6.34375 -26.549999 4278190080
12.21875 -6.34375 -26.549999 4278190080
12.34375 -6.34375 -26.549999 4278190080
14.34375 -6.34375 -26.549999 4278190080
14.46875 -6.34375 -26.549999 4278190080
-2.404372 -1.7923501 -7.428196 4278190080
-2.732558 -2.3837211 -9.8790693 4278190080
-1.269017 -1.521336 -6.3050089 4278190080
0.54316801 -1.374686 -5.6972342 4278190080
14.28125 -6.40625 -26.549999 4278190080
14.53125 -6.40625 -26.549999 4278190080
4.68503 -1.964072 -8.1398802 4278190080
10.043373 -3.951807 -16.377831 4278190080
-2.6199341 -1.8138011 -7.444468 4278190080
-0.99470901 -1.460317 -5.99365 4278190080
9.2363634 -5.0181818 -20.596363 4278190080
-2.678261 -2.423188 -9.8504343 4278190080
-0.73856801 -1.442623 -5.8643661 4278190080
-0.087467998 -1.406224 -5.7164001 4278190080
0.25978401 -1.3921731 -5.6592841 4278190080
9.21875 -6.53125 -26.549999 4278190080
8.8809528 -4.976191 -20.228571 4278190080
10.043373 -4.0289159 -16.377831 4278190080
12.244898 -4.8746362 -19.815742 4278190080
12.244898 -4.8746362 -19.815742 4278190080
-2.3816791 -1.840785 -7.4119949 4278190080
-0.48870301 -1.412552 -5.6876979 4278190080
9.1612902 -5.4451609 -21.925161 4278190080
11.96875 -6.59375 -26.549999 4278190080
14.65625 -6.59375 -26.549999 4278190080
14.78125 -6.59375 -26.549999 4278190080
12.244898 -4.9212828 -19.815742 4278190080
-1.19891 -1.547684 -6.1732969 4278190080
-0.865435 -1.4986809 -5.9778361 4278190080
-0.44255301 -1.450213 -5.7845111 4278190080
-0.034042999 -1.450213 -5.7845111 4278190080
0.033783998 -1.439189 -5.740541 4278190080
0.49702099 -1.450213 -5.7845111 4278190080
0.58069998 -1.4551671 -5.8042698 4278190080
2.994097 -2.011806 -8.0245571 4278190080
12.34375 -6.65625 -26.549999 4278190080
13.21875 -6.65625 -26.549999 4278190080
11.886364 -4.840909 -19.30909 4278190080
-1.05 -1.535714 -6.0685711 4278190080
-0.41146699 -1.450253 -5.7308602 4278190080
0.58925498 -1.490468 -5.8897738 4278190080
0.80714297 -1.535714 -6.0685711 4278190080
1.7426749 -2.191083 -8.6583433 4278190080
13.84375 -6.71875 -26.549999 4278190080
14.28125 -6.71875 -26.549999 4278190080
11.886364 -4.886364 -19.30909 4278190080
-2.582057 -1.899343 -7.4363241 4278190080
-2.961597 -2.666667 -10.440553 4278190080
-0.895154 -1.529515 -5.9883699 4278190080
-0.30379701 -1.4649791 -5.7356958 4278190080
7.1084342 -5.2289162 -20.472288 4278190080
9.28125 -6.78125 -26.549999 4278190080
12.78125 -6.78125 -26.549999 4278190080
13.28125 -6.78125 -26.549999 4278190080
14.59375 -6.78125 -26.549999 4278190080
-0.81391299 -1.523478 -5.9102612 4278190080
1.0009 -1.5769579 -6.117732 4278190080
1.1491309 -1.602928 -6.2184811 4278190080
6.96875 -6.84375 -26.549999 4278190080
7.34375 -6.84375 -26.549999 4278190080
7.1084342 -5.2771091 -20.472288 4278190080
9.28125 -6.84375 -26.549999 4278190080
13.84375 -6.84375 -26.549999 4278190080
12.045714 -5.0057139 -19.419428 4278190080
-2.359086 -1.92383 -7.395865 4278190080
-2.998405 -2.819777 -10.840191 4278190080
-2.963434 -2.810811 -10.805723 4278190080
-0.72351402 -1.522825 -5.8542628 4278190080
1.094203 -1.601449 -6.1565218 4278190080
7.28125 -6.90625 -26.549999 4278190080
8.59375 -6.90625 -26.549999 4278190080
13.03125 -6.90625 -26.549999 4278190080
12.753246 -5.7402601 -22.067532 4278190080
11.807365 -5.0084991 -19.254391 4278190080
-2.2246461 -1.945474 -7.4119949 4278190080
-0.99470901 -1.573192 -5.99365 4278190080
-0.62489301 -1.53133 -5.8341632 4278190080
0.66016001 -1.5829639 -6.0308781 4278190080
6.5952382 -5.3095241 -20.228571 4278190080
11.53125 -6.96875 -26.549999 4278190080
12.753246 -5.7922082 -22.067532 4278190080
-2.2769899 -1.962923 -7.4119949 4278190080
-2.1904759 -1.948052 -7.355844 4278190080
-1.2143511 -1.655934 -6.2528062 4278190080
-0.31729999 -1.5189871 -5.7356958 4278190080
-0.31729999 -1.5189871 -5.7356958 4278190080
6.6231461 -5.3412461 -20.168545 4278190080
14.09375 -7.03125 -26.549999 4278190080
14.46875 -7.03125 -26.549999 4278190080
11.976471 -5.294117 -19.990587 4278190080
-2.1281221 -1.97177 -7.3798041 4278190080
-1.278505 -1.697196 -6.352149 4278190080
-1.226766 -1.687732 -6.3167291 4278190080
-1.155157 -1.6287 -6.0957851 4278190080
-0.73984402 -1.569577 -5.8745031 4278190080
-0.39480501 -1.572294 -5.884675 4278190080
9.40625 -7.09375 -26.549999 4278190080
10.826855 -6.4169612 -24.01696 4278190080
11.384615 -6.3496499 -23.765034 4278190080
-0.46048099 -1.5738831 -5.8391752 4278190080
-0.38630399 -1.608428 -5.96734 4278190080
1.2141531 -1.705773 -6.3284912 4278190080
6.34375 -7.15625 -26.549999 4278190080
6.59375 -7.15625 -26.549999 4278190080
6.96875 -7.15625 -26.549999 4278190080
7.59375 -7.15625 -26.549999 4278190080
10.043011 -4.9247308 -18.270967 4278190080
10.52861 -4.9918261 -18.51989 4278190080
-2.6004319 -1.99568 -7.3399572 4278190080
-2.166127 -1.993528 -7.3320379 4278190080
-0.96085399 -1.644128 -6.0469751 4278190080
-0.33276701 -1.568761 -5.7697792 4278190080
3.669903 -4.4854369 -16.497087 4278190080
3.788461 -4.442307 -16.338461 4278190080
7.28125 -7.21875 -26.549999 4278190080
11.40625 -7.21875 -26.549999 4278190080
12.245399 -5.6687121 -20.849079 4278190080
11.886364 -5.25 -19.30909 4278190080
-0.58772701 -1.611063 -5.8745031 4278190080
-0.28082201 -1.59589 -5.8191781 4278190080
-0.269896 -1.612457 -5.8795848 4278190080
-0.101437 -1.575655 -5.7453928 4278190080
0.97257799 -1.7038389 -6.2127972 4278190080
3.455847 -4.448688 -16.221479 4278190080
3.455847 -4.448688 -16.221479 4278190080
6.28125 -7.28125 -26.549999 4278190080
6.53125 -7.28125 -26.549999 4278190080
9.53125 -7.28125 -26.549999 4278190080
9.59375 -7.28125 -26.549999 4278190080
11.46875 -7.28125 -26.549999 4278190080
10.711864 -6.318644 -23.039999 4278190080
11.298969 -6.405499 -23.356701 4278190080
10.456522 -5.065217 -18.469564 4278190080
-2.491379 -2.025862 -7.3241382 4278190080
-2.2203021 -2.0302379 -7.3399572 4278190080
-0.56445998 -1.6376311 -5.920557 4278190080
0.034217 -1.608212 -5.8141999 4278190080
0.181665 -1.581161 -5.7164001 4278190080
0.21697301 -1.644794 -5.946456 4278190080
0.63401598 -1.674087 -6.0523601 4278190080
0.73768997 -1.68308 -6.0848699 4278190080
3.5662651 -4.5301199 -16.377831 4278190080
7.28125 -7.34375 -26.549999 4278190080
7.71875 -7.34375 -26.549999 4278190080
10.84375 -7.34375 -26.549999 4278190080
10.786207 -6.482759 -23.437241 4278190080
11.252459 -6.1639342 -22.28459 4278190080
11.252459 -6.1639342 -22.28459 4278190080
10.470589 -5.5294118 -19.990587 4278190080
10.413043 -5.108696 -18.469564 4278190080
10.615804 -5.1226158 -18.51989 4278190080
-2.543103 -2.043103 -7.3241382 4278190080
-1.213235 -1.7426471 -6.2470589 4278190080
-0.81777799 -1.685333 -6.0416002 4278190080
-0.78814298 -1.653008 -5.9257188 4278190080
-0.471416 -1.667546 -5.9778361 4278190080
6.65625 -7.40625 -26.549999 4278190080
6.84375 -7.40625 -26.549999 4278190080
7.65625 -7.40625 -26.549999 4278190080
6.7380948 -5.6428571 -20.228571 4278190080
6.7857141 -5.6428571 -20.228571 4278190080
10.96875 -7.40625 -26.549999 4278190080
10.273973 -6.4931512 -23.276712 4278190080
10.711864 -6.4271188 -23.039999 4278190080
10.601093 -5.1803279 -18.570492 4278190080
12.142012 -5.609468 -20.108875 4278190080
-2.073118 -2.0559139 -7.3083868 4278190080
-0.84705901 -1.730317 -6.15095 4278190080
3.884058 -4.6183581 -16.417391 4278190080
10.091873 -6.7561841 -24.01696 4278190080
10.731034 -6.5931029 -23.437241 4278190080
13.372694 -7.0553508 -25.080442 4278190080
11.119777 -5.3259048 -18.93259 4278190080
-3.01282 -3.0897441 -10.892307 4278190080
1.1554739 -1.773689 -6.2528062 4278190080
6.28125 -7.53125 -26.549999 4278190080
-2.2475779 -2.0925729 -7.3162541 4278190080
-1.154122 -1.741935 -6.090322 4278190080
-1.027458 -1.7218781 -6.020195 4278190080
3.349282 -4.6507182 -16.260286 4278190080
7.21875 -7.59375 -26.549999 4278190080
10.805555 -6.75 -23.599998 4278190080
10.916667 -6.75 -23.599998 4278190080
8.4975128 -4.8358212 -16.907463 4278190080
9.5694818 -5.2970028 -18.51989 4278190080
7.1853361 -3.9592669 -13.84277 4278190080
7.4897122 -4 -13.985185 4278190080
10.868347 -5.4453778 -19.038654 4278190080
11.109859 -5.4760571 -19.145914 4278190080
11.109859 -5.4760571 -19.145914 4278190080
11.918367 -5.6676378 -19.815742 4278190080
11.75 -5.522727 -19.30909 4278190080
-2.2451611 -2.107527 -7.3083868 4278190080
-2.9888711 -3.1160569 -10.805723 4278190080
-0.25583401 -1.694036 -5.8745031 4278190080
0.048110001 -1.683849 -5.8391752 4278190080
0.075600997 -1.683849 -5.8391752 4278190080
6.34375 -7.65625 -26.549999 4278190080
6.90625 -7.65625 -26.549999 4278190080
7.2326531 -4 -13.87102 4278190080
10.868347 -5.4901962 -19.038654 4278190080
-2.974684 -3.1265819 -10.75443 4278190080
-0.97801203 -1.7379071 -5.9778361 4278190080
-0.92010498 -1.7348551 -5.96734 4278190080
-0.73793101 -1.7034481 -5.8593102 4278190080
12.236842 -6.5 -22.357895 4278190080
12.289474 -6.5 -22.357895 4278190080
12.012698 -6.273016 -21.577143 4278190080
11.04 -5.6457138 -19.419428 4278190080
-2.0880771 -2.1396351 -7.3005371 4278190080
-0.89285702 -1.778571 -6.0685711 4278190080
-0.698358 -1.721694 -5.8745031 4278190080
-0.486301 -1.70548 -5.8191781 4278190080
-0.130026 -1.704021 -5.8141999 4278190080
-0.048027001 -1.708405 -5.8291588 4278190080
0.909091 -1.810909 -6.1789088 4278190080
3.79759 -4.8000002 -16.377831 4278190080
7.5616441 -5.4575338 -18.621368 4278190080
7.534883 -4.6325579 -15.806511 4278190080
7.347281 -4.1673641 -14.219247 4278190080
12.064309 -6.4051452 -21.854662 4278190080
-2.8387101 -3.0844851 -10.440553 4278190080
-1.2143511 -1.847286 -6.2528062 4278190080
-1.035714 -1.7928571 -6.0685711 4278190080
-0.99463302 -1.796064 -6.0794268 4278190080
-0.83720899 -1.796064 -6.0794268 4278190080
-0.53425801 -1.741544 -5.8948832 4278190080
7.46875 -7.84375 -26.549999 4278190080
7.7204299 -5.39785 -18.270967 4278190080
7.572093 -4.6697669 -15.806511 4278190080
11.883495 -6.4983821 -21.996117 4278190080
11.418181 -6.0848479 -20.596363 4278190080
11.593221 -5.672317 -19.199999 4278190080
-2.405951 -2.150903 -7.2229538 4278190080
-1.287442 -1.882791 -6.3226051 4278190080
-1.287442 -1.882791 -6.3226051 4278190080
-0.59436399 -1.7284369 -5.8042698 4278190080
-0.41079199 -1.7615319 -5.9154038 4278190080
6.71875 -7.90625 -26.549999 4278190080
7.6493149 -5.5452061 -18.621368 4278190080
7.9375 -5.270833 -17.699999 4278190080
11.432024 -6.1148038 -20.534138 4278190080
11.704545 -5.75 -19.30909 4278190080
-2.589247 -2.193548 -7.3083868 4278190080
-0.98827797 -1.8394949 -6.1287651 4278190080
-0.66192198 -1.814947 -6.0469751 4278190080
-0.46976301 -1.787905 -5.9568801 4278190080
-0.419604 -1.754084 -5.8441958 4278190080
3.9417479 -4.951457 -16.497087 4278190080
7.09375 -7.96875 -26.549999 4278190080
7.726316 -5.3684211 -17.886314 4278190080
11.602485 -6.3354039 -21.108074 4278190080
11.096045 -5.762712 -19.199999 4278190080
11.308782 -5.779037 -19.254391 4278190080
-2.6551349 -2.222703 -7.3478918 4278190080
0.58657199 -1.816254 -6.00424 4278190080
0.96464199 -1.864007 -6.1621032 4278190080
1.187614 -1.8724951 -6.1901641 4278190080
7.8325582 -4.781395 -15.806511 4278190080
11.552795 -6.3850932 -21.108074 4278190080
11.011495 -5.9080458 -19.531034 4278190080
11.263456 -5.8243632 -19.254391 4278190080
-0.66016001 -1.838509 -6.0308781 4278190080
0.56992102 -1.82234 -5.9778361 4278190080
0.62365597 -1.856631 -6.090322 4278190080
3.403846 -4.9807692 -16.338461 4278190080
6.90625 -8.09375 -26.549999 4278190080
7.6875 -5.395833 -17.699999 4278190080
7.4989562 -4.3256779 -14.189561 4278190080
7.5481172 -4.3347278 -14.219247 4278190080
10.615385 -5.692307 -18.672527 4278190080
-1.535557 -1.314034 -4.2774072 4278190080
-2.753324 -3.0841949 -10.039586 4278190080
-0.96085399 -1.857651 -6.0469751 4278190080
-0.11857 -1.820401 -5.9257188 4278190080
0.18798999 -1.817232 -5.9154038 4278190080
0.54576898 -1.803109 -5.8694301 4278190080
6.40625 -8.15625 -26.549999 4278190080
8.59375 -8.15625 -26.549999 4278190080
8.474227 -5.381444 -17.517525 4278190080
8.474227 -5.381444 -17.517525 4278190080
7.4723411 -4.442553 -14.461276 4278190080
12.571428 -7.2752609 -23.68223 4278190080
12.627177 -7.2752609 -23.68223 4278190080
11.263456 -5.9150138 -19.254391 4278190080
-2.488323 -2.233546 -7.2152858 4278190080
-2 -2.2382979 -7.230638 4278190080
-1.134701 -1.876896 -6.063158 4278190080
-0.82105303 -1.845614 -5.9621048 4278190080
-0.58092701 -1.84077 -5.946456 4278190080
7.59375 -8.21875 -26.549999 4278190080
8.71875 -8.21875 -26.549999 4278190080
7.5616441 -5.7643838 -18.621368 4278190080
7.347281 -4.4016738 -14.219247 4278190080
-1.21547 -1.952118 -6.258564 4278190080
-0.84848499 -1.889483 -6.057754 4278190080
-0.71465701 -1.8386821 -5.8948832 4278190080
-0.47916701 -1.840278 -5.9000001 4278190080
-0.35571101 -1.8483 -5.9257188 4278190080
0.96991801 -1.932543 -6.195807 4278190080
1.223443 -1.9413919 -6.224175 4278190080
7.5616441 -5.808219 -18.621368 4278190080
7.6493149 -5.808219 -18.621368 4278190080
7.6493149 -5.808219 -18.621368 4278190080
7.85641 -5.4358969 -17.427692 4278190080
12.052288 -6.9281039 -22.211763 4278190080
11.311954 -6.180758 -19.815742 4278190080
11.231638 -5.9886999 -19.199999 4278190080
10.297229 -5.3400502 -17.120403 4278190080
-1.490343 -1.3308409 -4.234766 4278190080
-2.1656051 -2.2675159 -7.2152858 4278190080
-0.66901398 -1.880282 -5.983099 4278190080
-0.42620099 -1.865502 -5.936069 4278190080
0.188317 -1.862249 -5.9257188 4278190080
0.53050399 -1.888594 -6.0095491 4278190080
0.78629398 -1.926059 -6.1287651 4278190080
3.2038369 -5.1223021 -16.29928 4278190080
6.78125 -8.34375 -26.549999 4278190080
7.78125 -8.34375 -26.549999 4278190080
8.53125 -8.34375 -26.549999 4278190080
7.7142859 -5.8681321 -18.672527 4278190080
8.2189054 -5.3134332 -16.907463 4278190080
12.025974 -6.9350648 -22.067532 4278190080
11.571865 -6.5321102 -20.78532 4278190080
11.445783 -6.4337349 -20.472288 4278190080
-2.42963 -2.2772491 -7.1923809 4278190080
-2.6863911 -3.1834321 -10.054438 4278190080
-1.308411 -2.011215 -6.352149 4278190080
-1.027458 -1.906112 -6.020195 4278190080
-0.67019397 -1.897707 -5.99365 4278190080
0.59964699 -1.897707 -5.99365 4278190080
1.049541 -1.9743119 -6.2355962 4278190080
3.9132531 -5.1855421 -16.377831 4278190080
7.7532129 -5.5321341 -17.472492 4278190080
7.7974682 -5.448101 -17.207088 4278190080
8.1800003 -5.3800001 -16.991999 4278190080
7.1092782 -4.4371128 -14.01402 4278190080
-0.88888901 -1.958446 -6.1398368 4278190080
-0.66074598 -1.9254 -6.0362339 4278190080
0.49418101 -1.940913 -6.0848699 4278190080
7.78125 -8.46875 -26.549999 4278190080
8.46875 -8.46875 -26.549999 4278190080
8.84375 -8.46875 -26.549999 4278190080
8.1386137 -5.3663368 -16.823761 4278190080
10.71579 -5.7052631 -17.886314 4278190080
10.78628 -5.7203159 -17.933508 4278190080
-2.044539 -2.3160131 -7.2076349 4278190080
-1.06619 -1.953488 -6.0794268 4278190080
-0.773736 -1.937888 -6.0308781 4278190080
-0.55879802 -1.931034 -6.0095491 4278190080
0.76428598 -1.95 -6.0685711 4278190080
6.53125 -8.53125 -26.549999 4278190080
7.40625 -8.53125 -26.549999 4278190080
7.5616441 -5.983562 -18.621368 4278190080
14.03125 -8.53125 -26.549999 4278190080
11.044444 -6.0666671 -18.879999 4278190080
-0.409722 -1.909722 -5.9000001 4278190080
0.75812298 -1.9855601 -6.1342959 4278190080
8.59375 -8.59375 -26.549999 4278190080
9.03125 -8.59375 -26.549999 4278190080
7.6549859 -5.9299188 -18.320215 4278190080
11.391045 -6.5671639 -20.288954 4278190080
-2.810164 -3.312407 -10.159641 4278190080
-2.7706151 -3.3223391 -10.190104 4278190080
8.84375 -8.65625 -26.549999 4278190080
9.15625 -8.65625 -26.549999 4278190080
7.5616441 -6.0712328 -18.621368 4278190080
7.6054788 -6.0712328 -18.621368 4278190080
7.8208961 -5.5124378 -16.907463 4278190080
13.84375 -8.65625 -26.549999 4278190080
10.755784 -5.6966581 -17.472492 4278190080
-6.3036652 -5.8429322 -17.792669 4278190080
-1.0329469 -1.987533 -6.0523601 4278190080
-0.89201099 -1.959614 -5.96734 4278190080
7.7360411 -5.6649752 -17.250761 4278190080
7.8606958 -5.5522389 -16.907463 4278190080
8 -5.5660849 -16.949625 4278190080
11.022727 -6.340909 -19.30909 4278190080
10.095717 -5.6221662 -17.120403 4278190080
10.512563 -5.6080399 -17.077387 4278190080
-1.303538 -2.0931101 -6.3284912 4278190080
-0.65972197 -1.951389 -5.9000001 4278190080
0.491541 -2.001781 -6.0523601 4278190080
0.97826099 -2.036232 -6.1565218 4278190080
6.65625 -8.78125 -26.549999 4278190080
7.90625 -8.78125 -26.549999 4278190080
8.78125 -8.78125 -26.549999 4278190080
7.582417 -6.1758242 -18.672527 4278190080
8.1714287 -5.3523812 -16.182858 4278190080
8.0934582 -5.252337 -15.880373 4278190080
10.43216 -5.648241 -17.077387 4278190080
-0.314136 -1.975567 -5.9308901 4278190080
-0.119718 -1.9929579 -5.983099 4278190080
7.67033 -6.21978 -18.672527 4278190080
8.2970285 -5.603961 -16.823761 4278190080
8.4038458 -5.442307 -16.338461 4278190080
10.472362 -5.6884422 -17.077387 4278190080
-1.130513 -2.0522051 -6.117732 4278190080
-0.485488 -2.0052769 -5.9778361 4278190080
0.64144099 -2.054054 -6.1232429 4278190080
0.78276497 -2.046679 -6.1012559 4278190080
14.59375 -8.90625 -26.549999 4278190080
-2.246057 -2.4143009 -7.1470032 4278190080
-2.839879 -3.4682779 -10.267069 4278190080
-1.125664 -2.031858 -6.0148668 4278190080
-0.287972 -2.0158031 -5.96734 4278190080
0.006999 -2.008749 -5.946456 4278190080
1.150278 -2.1298699 -6.3050089 4278190080
7.84375 -8.96875 -26.549999 4278190080
8.53125 -8.96875 -26.549999 4278190080
9.21875 -8.96875 -26.549999 4278190080
7.74124 -6.1886792 -18.320215 4278190080
8.2698793 -5.5325298 -16.377831 4278190080
11.290141 -6.4676061 -19.145914 4278190080
-1.061443 -2.0587709 -6.0523601 4278190080
-0.83802801 -2.0352111 -5.983099 4278190080
-0.55781102 -2.0406001 -5.99894 4278190080
3.3429949 -5.5845408 -16.417391 4278190080
3.8653851 -5.557693 -16.338461 4278190080
9.03125 -9.03125 -26.549999 4278190080
7.8284178 -6.198391 -18.221983 4278190080
8.1293802 -6.2318058 -18.320215 4278190080
8.2189054 -5.7512441 -16.907463 4278190080
8.3800478 -5.4916859 -16.144417 4278190080
-2.798799 -3.495496 -10.205405 4278190080
0.21697301 -2.0367451 -5.946456 4278190080
0.55197102 -2.0860209 -6.090322 4278190080
0.709324 -2.1279709 -6.2127972 4278190080
8.34375 -9.09375 -26.549999 4278190080
8.78125 -9.09375 -26.549999 4278190080
8.90625 -9.09375 -26.549999 4278190080
9.59375 -9.09375 -26.549999 4278190080
7.580111 -6.4309392 -18.77569 4278190080
7.717391 -6.326087 -18.469564 4278190080
8 -6.2749319 -18.320215 4278190080
8.1925135 -6.2245989 -18.173262 4278190080
8.0417757 -6.0783291 -17.746214 4278190080
9.8191214 -6.0155039 -17.56279 4278190080
11.154929 -6.5577459 -19.145914 4278190080
-2.2124081 -2.4647739 -7.1470032 4278190080
3.903846 -5.6346149 -16.338461 4278190080
6.40625 -9.15625 -26.549999 4278190080
8.28125 -9.15625 -26.549999 4278190080
4.2676311 -4.238698 -12.290777 4278190080
7.580111 -6.4751382 -18.77569 4278190080
8.2156334 -6.318059 -18.320215 4278190080
8.1791048 -5.8308458 -16.907463 4278190080
11.221622 -6.335135 -18.36973 4278190080
-1.246083 -2.1751151 -6.2643318 4278190080
-0.189474 -2.0701749 -5.9621048 4278190080
8.46875 -9.21875 -26.549999 4278190080
4.3088241 -4.3382349 -12.494118 4278190080
7.6473832 -6.5013781 -18.723967 4278190080
8.270833 -6.145833 -17.699999 4278190080
9.7938147 -6.0824742 -17.517525 4278190080
9.8097687 -6.0668378 -17.472492 4278190080
10.077922 -6.1298699 -17.654026 4278190080
10.077922 -6.1298699 -17.654026 4278190080
-0.47517699 -2.1063831 -6.0255318 4278190080
0.24756899 -2.100796 -6.0095491 4278190080
0.80147099 -2.1838241 -6.2470589 4278190080
7.28125 -9.28125 -26.549999 4278190080
8.40625 -9.28125 -26.549999 4278190080
4.3516479 -4.3516479 -12.448351 4278190080
7.6263738 -6.527472 -18.672527 4278190080
8.1293802 -6.4043131 -18.320215 4278190080
8.2358723 -5.8378382 -16.699755 4278190080
8.3538084 -5.8378382 -16.699755 4278190080
8.3653851 -5.7115378 -16.338461 4278190080
10.091371 -6.030457 -17.250761 4278190080
-1.1479501 -2.131907 -6.057754 4278190080
-0.88028198 -2.105634 -5.983099 4278190080
0.14711 -2.0945711 -5.951663 4278190080
6.71875 -9.34375 -26.549999 4278190080
9.03125 -9.34375 -26.549999 4278190080
7.667532 -6.2129869 -17.654026 4278190080
8.4155846 -6.2129869 -17.654026 4278190080
9.0192308 -5.75 -16.338461 4278190080
10.015113 -6.0251889 -17.120403 4278190080
-1.256506 -2.2379179 -6.3167291 4278190080
0.88807303 -2.2091739 -6.2355962 4278190080
6.65625 -9.40625 -26.549999 4278190080
7.53125 -9.40625 -26.549999 4278190080
7.96875 -9.40625 -26.549999 4278190080
8.90625 -9.40625 -26.549999 4278190080
7.5204358 -6.5613079 -18.51989 4278190080
8.3114357 -5.858881 -16.537226 4278190080
8.309927 -5.8305092 -16.457142 4278190080
13.40146 -8.7883205 -24.80584 4278190080
8.9807692 -5.7884622 -16.338461 4278190080
11.082153 -6.8215299 -19.254391 4278190080
-0.480836 -2.1114981 -5.920557 4278190080
-0.426947 -2.1207349 -5.946456 4278190080
-0.27225101 -2.1151831 -5.9308901 4278190080
0.60917401 -2.2238531 -6.2355962 4278190080
0.88080102 -2.205642 -6.1845312 4278190080
0.99726999 -2.205642 -6.1845312 4278190080
8.53125 -9.46875 -26.549999 4278190080
9.15625 -9.46875 -26.549999 4278190080
9.28125 -9.46875 -26.549999 4278190080
7.543478 -6.586957 -18.469564 4278190080
7.9375 -6.3125 -17.699999 4278190080
8.041131 -6.2313619 -17.472492 4278190080
8.270833 -6.3125 -17.699999 4278190080
8.2725058 -5.89781 -16.537226 4278190080
13.40146 -8.846715 -24.80584 4278190080
11.036827 -6.8668561 -19.254391 4278190080
11.470423 -6.8281689 -19.145914 4278190080
11.638418 -6.8474569 -19.199999 4278190080
-5.303371 -5.4831462 -15.273707 4278190080
-2.1282859 -2.5657201 -7.1470032 4278190080
7.9164491 -6.3707571 -17.746214 4278190080
8.479167 -6.354167 -17.699999 4278190080
12.32653 -8.2993193 -23.118366 4278190080
10.206185 -6.28866 -17.517525 4278190080
11.650704 -6.87324 -19.145914 4278190080
-1.337068 -2.293184 -6.3462181 4278190080
-1.320896 -2.291045 -6.3402982 4278190080
-1.217867 -2.238833 -6.195807 4278190080
-1.131531 -2.2126131 -6.1232429 4278190080
-0.76357299 -2.1506131 -5.951663 4278190080
0.49285701 -2.192857 -6.0685711 4278190080
0.615942 -2.224638 -6.1565218 4278190080
0.650823 -2.244972 -6.2127972 4278190080
1.233645 -2.2953269 -6.352149 4278190080
9.46875 -9.59375 -26.549999 4278190080
7.6791439 -6.5668449 -18.173262 4278190080
7.6791439 -6.5668449 -18.173262 4278190080
8.2088776 -6.4125328 -17.746214 4278190080
12.881356 -8.3254242 -23.039999 4278190080
-2.014878 -2.626992 -7.2229538 4278190080
2.132653 -3.1530609 -8.6693878 4278190080
2.163522 -3.1094339 -8.5494337 4278190080
7.65625 -9.65625 -26.549999 4278190080
8.40625 -9.65625 -26.549999 4278190080
9.40625 -9.65625 -26.549999 4278190080
10.270833 -6.4375 -17.699999 4278190080
11.45098 -6.9243698 -19.038654 4278190080
11.719888 -6.9243698 -19.038654 4278190080
0.70802897 -2.2700729 -6.2014599 4278190080
0.76086998 -2.253623 -6.1565218 4278190080
0.93478298 -2.253623 -6.1565218 4278190080
1.159741 -2.297322 -6.2758999 4278190080
2.1381071 -3.181586 -8.6915598 4278190080
7.84375 -9.71875 -26.549999 4278190080
9.09375 -9.71875 -26.549999 4278190080
7.636364 -6.6524062 -18.173262 4278190080
7.852632 -6.547369 -17.886314 4278190080
8.9386663 -6.634666 -18.1248 4278190080
8.766839 -6.4455962 -17.60829 4278190080
8.3999996 -5.92381 -16.182858 4278190080
12.92517 -8.4625854 -23.118366 4278190080
-5.2197309 -5.6143498 -15.239462 4278190080
-0.57839698 -2.181185 -5.920557 4278190080
-0.091068 -2.1926451 -5.951663 4278190080
0.0070179999 -2.196491 -5.9621048 4278190080
0.30308399 -2.206167 -5.9883699 4278190080
0.68345302 -2.2517991 -6.1122298 4278190080
1.0497741 -2.266063 -6.15095 4278190080
8.766839 -6.4870472 -17.60829 4278190080
8.3800478 -5.9477429 -16.144417 4278190080
-2.0273399 -2.649842 -7.1470032 4278190080
-1.035211 -2.2183101 -5.983099 4278190080
0.652915 -2.2600901 -6.0957851 4278190080
3.3573141 -6.0431662 -16.29928 4278190080
3.990453 -6.0143199 -16.221479 4278190080
2.2030461 -3.197969 -8.6253815 4278190080
8.28125 -9.84375 -26.549999 4278190080
7.5476189 -7.5 -20.228571 4278190080
8.354167 -6.5625 -17.699999 4278190080
8.237443 -5.7534251 -15.517808 4278190080
-0.93497401 -2.228471 -5.9725828 4278190080
-0.86619699 -2.232394 -5.983099 4278190080
-0.424348 -2.2052169 -5.9102612 4278190080
0.147627 -2.228471 -5.9725828 4278190080
0.592857 -2.264286 -6.0685711 4278190080
4.009593 -6.0815349 -16.29928 4278190080
7.09375 -9.90625 -26.549999 4278190080
5.205821 -5.2723489 -14.130561 4278190080
8.1246758 -6.5870128 -17.654026 4278190080
8.4177542 -6.6214099 -17.746214 4278190080
10.463158 -6.6736841 -17.886314 4278190080
10.846361 -6.8355789 -18.320215 4278190080
10.846361 -6.8355789 -18.320215 4278190080
-1.15009 -2.3074141 -6.1453891 4278190080
-0.795075 -2.244503 -5.9778361 4278190080
0.459364 -2.2544169 -6.00424 4278190080
0.512173 -2.301172 -6.1287651 4278190080
0.67495602 -2.2664299 -6.0362339 4278190080
3.9522669 -6.090692 -16.221479 4278190080
7.852632 -6.7157888 -17.886314 4278190080
8.229167 -6.645833 -17.699999 4278190080
-6.065217 -6.978261 -18.469564 4278190080
-0.99558699 -2.2665491 -5.99894 4278190080
-0.70322001 -2.234987 -5.9154038 4278190080
0.98384202 -2.305207 -6.1012559 4278190080
6.78125 -10.03125 -26.549999 4278190080
5.0727649 -5.3388772 -14.130561 4278190080
5.2505169 -5.3167701 -14.072049 4278190080
5.4833331 -5.3499999 -14.16 4278190080
7.7480321 -6.7401581 -17.839369 4278190080
7.8105259 -6.757895 -17.886314 4278190080
8.0426664 -6.848 -18.1248 4278190080
8.4266663 -6.848 -18.1248 4278190080
8.237443 -5.8630142 -15.517808 4278190080
11.302949 -6.8847179 -18.221983 4278190080
-4.171875 -5.046875 -13.275 4278190080
-1.978947 -2.72 -7.1545262 4278190080
-0.158758 -2.2295079 -5.8643661 4278190080
-0.048994001 -2.2607169 -5.946456 4278190080
0.91121101 -2.3174889 -6.0957851 4278190080
1.2118959 -2.4014871 -6.3167291 4278190080
6.96875 -10.09375 -26.549999 4278190080
8.1697617 -6.8541112 -18.028646 4278190080
8.4289541 -6.9276142 -18.221983 4278190080
11.260054 -6.9276142 -18.221983 4278190080
-6.152174 -7.065217 -18.469564 4278190080
-4.3365951 -5.0880628 -13.300978 4278190080
-4.3365951 -5.0880628 -13.300978 4278190080
-4.1964641 -5.1080551 -13.353241 4278190080
-0.076190002 -2.2510819 -5.884675 4278190080
0.62477601 -2.3339319 -6.1012559 4278190080
1.028777 -2.33813 -6.1122298 4278190080
7.78125 -10.15625 -26.549999 4278190080
8.09375 -10.15625 -26.549999 4278190080
7.8328981 -6.7885122 -17.746214 4278190080
8.2313251 -6.2650599 -16.377831 4278190080
8.3870964 -5.9907832 -15.660829 4278190080
11.5 -7.065217 -18.469564 4278190080
-0.676759 -2.3294749 -6.0523601 4278190080
-0.62620902 -2.300792 -5.9778361 4278190080
0.51777601 -2.384686 -6.195807 4278190080
0.67269403 -2.3652799 -6.1453891 4278190080
8.3743839 -6.4433498 -16.740887 4278190080
